# 3D point list with one line of data per point:
#   POINT3D_ID, X, Y, Z, R, G, B, ERROR, TRACK[] as (IMAGE_ID, POINT2D_IDX)
# Number of points: 428, mean track length: 2.4719471947194718
627 0.027592733896796673 0.80600872111176336 6.2074356748027384 91 93 81 0.22032584366704627 3 1557 2 1446
626 -0.0057205107599402338 0.80611068568276145 6.2063713826664468 124 126 113 0.32506366663937991 3 1545 2 1445
625 -0.054745545849264277 0.80691507085424574 6.2057676248786517 129 132 125 0.65501994161039545 3 1541 2 1441
624 1.2476196359883041 0.67280159765253955 5.6890634452973874 16 17 11 0.89853352812174347 3 1743 2 1439
623 0.97853616944722022 0.69049642068459505 5.72043004759872 34 35 29 0.14165018091827045 3 1728 2 1437
622 0.96798242177809635 0.69189804552009493 5.7249533836417532 22 25 16 0.31032414205854641 3 1727 2 1436
621 1.281979903016041 0.62223550359693736 5.3483200873000101 103 104 96 0.29377216920897847 3 1791 2 1434
620 0.88840246836668502 0.69560014766389333 5.7427488268638962 26 27 19 0.37237867964378413 3 1711 2 1433
619 -0.20531096553032913 0.84693273992051799 6.4974660724865752 85 92 85 0.23692681788214631 3 1456 2 1432
618 1.0648093252673854 0.64125908681024757 5.4017367146060744 101 98 93 0.95899643497646758 1 1247 2 1427
617 1.3122136797028914 0.61278044605835724 5.3344547905461068 158 162 153 0.6232946254843087 3 1774 2 1405
616 0.71453458912369772 0.66075025286381095 5.4453053003486334 67 68 62 0.70719262259301263 1 1266 2 1400
614 1.257871312121039 0.62395993144592221 5.4296983085866177 33 41 30 2.0034013579284409 1 1201 2 1387
613 0.027540655891615529 0.78302612422633988 6.2153146119923814 96 98 85 0.25302919070157481 3 1498 2 1382
612 -0.15958061637377752 0.82278031859576028 6.4942574738409462 125 126 118 1.0177379516510956 3 1415 2 1381
611 -0.0034912666281205484 0.78307132129941082 6.2073389523863884 129 131 119 1.1176644700695686 3 1497 2 1377
610 0.48922424664707137 0.65144952128989297 5.3492336336247561 124 128 114 0.44847849174060184 1 1263 2 1375
609 -0.20487059309526778 0.82349118413456113 6.5046811413443137 93 94 88 0.054734024292147854 3 1406 2 1374
608 0.37463365703296714 0.6678652236002327 5.4456012704858896 112 106 102 0.38242083840423485 3 1709 2 1372
607 -0.23412369124437826 0.82315872463836337 6.5012567926016329 112 114 107 0.45515192460355042 3 1401 2 1371
606 0.42761149971831847 0.6602031102925926 5.4385215608591269 137 140 129 0.19900152104888913 3 1701 2 1362
605 0.39352497904850614 0.66220496080445745 5.4424577163254622 149 154 147 0.14109091332674217 3 1693 2 1361
604 0.059450103160573031 0.7659378901345113 6.2342627338544236 100 100 88 0.17919882653536567 3 1468 2 1347
603 0.82209107411097959 0.64513629172239495 5.5296237435197089 28 29 20 0.12774764111598019 1 1223 2 1344
602 0.02808480964206983 0.76291421011953686 6.2235241972505015 100 100 90 0.22361172108705635 3 1453 2 1341
601 1.0420017807966535 0.61649900553729586 5.3974324710432313 145 146 138 0.43587794538192015 1 1203 2 1339
600 -0.15586859018994192 0.79917114495596175 6.4934096698841941 127 128 122 0.11213227746971705 3 1378 2 1333
599 -0.20394998917747909 0.80218285253151533 6.5115368069372153 94 95 90 0.35753848978626013 3 1371 2 1332
598 0.74993916133417171 0.63602134532346499 5.4399571619558174 107 107 99 1.4675296085626257 1 1240 2 1318
597 1.9309936441736018 0.61229857336402804 6.0337109842928527 108 111 104 1.8958487969960991 1 1120 2 1299
596 -0.20327820225639448 0.78075930512972247 6.5254517078399665 92 94 81 0.086004928487673632 3 1317 2 1294
595 1.0681096907953438 0.60219464012929746 5.4249743458052908 49 50 45 0.6980625320117535 1 1188 2 1288
594 0.39134636647690602 0.64109196970203142 5.4491274992933345 155 165 156 0.35848862723303737 3 1638 2 1284
593 1.9890063908536837 0.59090456866171659 5.9880043954947197 128 133 127 1.6144449190143706 1 1108 2 1279
592 1.9008055950543414 0.59833915165926377 6.0604766716738432 99 105 95 0.57977968424992588 1 1111 2 1268
591 1.8844298767391863 0.60139473420675227 6.073039420165907 126 129 118 0.11121553351054814 1 1112 2 1267
590 1.927396315849583 0.59121149996285682 6.0365318819084344 112 112 102 0.43172661274906088 1 1107 2 1265
589 1.2491069019501544 0.58242917557631957 5.4351570042754815 94 94 84 1.8049217982922687 3 1694 2 1260
588 0.05879356856701673 0.71998646420372525 6.2481610683188586 110 110 99 0.68737864461621845 3 1374 2 1259
587 0.026170550347821009 0.71946413766116768 6.2408011161599566 101 102 91 0.01847835678118448 3 1367 2 1258
586 -0.018631258512735338 0.72052599278066576 6.243215542985034 134 135 127 0.41245633805677895 3 1351 2 1254
585 0.71064817936239111 0.61232133390287791 5.4666822905588397 55 54 49 0.44801532344541029 3 1634 2 1251
584 0.77408290903712329 0.60549728041230377 5.4495665837213263 79 80 72 0.17891024173085979 3 1640 2 1250
583 1.2531302123235735 0.57839375186624375 5.4686793112868193 100 100 90 1.2525273960883347 3 1671 2 1243
582 0.73111352041116962 0.60537969135485936 5.4442881094229847 110 112 99 0.36243744990043425 3 1627 2 1241
581 0.97898830258750302 0.59252580683359946 5.4957565499678633 53 53 41 0.16398598853527679 3 1629 2 1237
580 0.48865410312607571 0.61657820167689859 5.4623265078826648 67 70 61 0.44679064784424738 1 1199 2 1231
579 1.9308228913693319 0.57342720525976376 6.0526110219354603 107 110 101 0.63652984921159395 1 1099 2 1229
578 1.2507172412932599 0.56919996070413681 5.4506624656092768 117 117 107 0.90256002238886168 1 1141 2 1227 4 943
577 0.42612081383240474 0.61740505217301322 5.4548866657586172 150 152 141 0.13521545141502575 3 1579 2 1226
576 0.39506361508309384 0.62040503865414931 5.4613815376393102 144 148 141 0.56652924970566765 3 1578 2 1225
575 1.0103802926543877 0.57987995858687846 5.4158556580576427 139 141 132 0.78554472345282256 1 1162 2 1221
574 0.54593641913175395 0.61299722077023033 5.5282322161736417 82 82 70 0.33228542124738475 1 1183 2 1217
573 -0.15693228792715219 0.73180403863678123 6.5315229264903234 130 131 123 1.6198920303414557 3 1217 2 1215
572 1.8485890864311916 0.57188527380074494 6.0889172850944 97 99 90 0.18593637294971754 1 1094 2 1210
571 1.2630081569852059 0.55296991526464156 5.3845806677342303 108 111 100 0.63996411239224482 3 1657 2 1199
570 1.0736306258230441 0.56788724923283107 5.4210218446973268 163 166 160 1.15041598047536 1 1151 2 1198 4 935
569 1.8999142978783041 0.55830488498216391 6.0754766926759416 109 113 99 0.030650667560459213 1 1088 2 1196
568 1.8910115927402462 0.56001957352276122 6.1053077111923599 123 127 113 0.57443761329505238 1 1085 2 1195
567 0.80551533796728647 0.58328107401646645 5.4453708172590991 106 107 102 0.025169535854977818 1 1158 2 1191
566 1.9670706623940684 0.54077858852592076 5.9871272906134951 123 124 118 0.61504328707194755 1 1077 2 1186
565 1.8337153380946547 0.55438467634681365 6.087204435742704 137 141 127 0.47203448764191802 1 1081 2 1182
564 1.0497944226526497 0.55926756137274969 5.426131605088429 145 147 141 1.2670666402259827 1 1131 2 1175
563 0.72539123357278301 0.58179717020917732 5.4537062203565725 112 115 108 0.072381213950687029 3 1568 2 1174
562 -0.0017410485208118609 0.67449806981683436 6.2586558589160042 138 140 127 0.095086201138881693 3 1236 2 1173
561 1.9276633930203051 0.54309605288634055 6.0577793233536905 118 119 111 0.44297617893994456 1 1076 2 1171
560 0.12941127727680596 0.66784557938410594 6.2781381250299155 26 28 17 0.75836627247846855 3 1266 2 1167
559 0.42717060531630391 0.59591865925824483 5.4615419210555096 134 142 129 0.68013100821644135 3 1530 2 1160
558 0.11881651402407359 0.66540055669330922 6.2792620863212951 106 103 88 1.4558631470901773 3 1257 2 1158
557 0.39192170582528629 0.59666430992855135 5.4651799839311419 144 158 145 0.67749278811050306 3 1515 2 1155
556 1.3054914464361709 0.53618632787555787 5.37953309964551 115 117 103 2.2926685749957851 3 1651 2 1152
555 1.8285418573773609 0.53768927435782743 6.1162786490557011 104 106 98 1.5635800208233244 1 1058 2 1147
554 1.3120951423508616 0.52502135014314688 5.3654390153942817 159 166 158 0.59535689125296976 3 1623 2 1139
553 1.2546538058486327 0.53104911695561963 5.4740474554729879 76 76 64 1.5715525194205571 3 1580 2 1129
552 0.70692212473453386 0.56467800358438403 5.4904160798205606 68 67 63 1.1751736898377376 3 1516 2 1126
551 0.89508432495289214 0.55042143950031486 5.504472265156461 33 34 29 0.23234075286360223 1 1119 2 1122
550 0.058307885932925879 0.63549370945998285 6.2805282206952509 116 114 101 0.23276684749857476 3 1160 2 1121
549 1.9571169941718591 0.50281212092337912 6.0479628086848027 142 144 133 0.49380720427508995 1 1047 2 1117
548 0.39490822217469945 0.57660851704715277 5.4767689840958607 145 152 144 0.53008014701290751 3 1461 2 1110
547 0.42634389663884564 0.57252100506627313 5.4704895636598483 142 145 136 0.11356048430608739 3 1462 2 1106
546 1.04505283978844 0.53036878472581295 5.4177178626430615 112 115 106 0.0081436336471750349 1 1109 2 1104
545 0.99716954091680843 0.532014888144271 5.4016565030550634 123 129 119 0.75016929630186402 1 1115 2 1100
544 1.307478832969299 0.50523127594213779 5.3766746709057429 164 166 155 0.030389767691285104 3 1570 2 1085
543 1.2538260810345361 0.51233510373001823 5.4366220891002524 147 145 132 1.1406048591164673 3 1558 2 1083 4 913
542 0.12955282734024401 0.61324874046498745 6.2912037310642006 139 141 130 0.47250260629921592 3 1144 2 1079
257 0.059554847510293135 0.61290199807257262 6.285656068982961 188 189 181 0.42760884704662594 1 1102 3 1120 2 1076
256 -0.27103670130812474 0.62726475530600867 6.5976041966082342 200 203 212 0.62133984810656784 1 1096 3 998
255 -0.20404323104596589 0.61258099768490371 6.5940238201855141 208 211 204 0.28346601850230163 1 1089 3 993 2 1047
254 1.2991526475055573 0.48622384167505495 5.3796738820235648 233 236 227 0.61136622869746882 1 1080 3 1532 2 1038
253 0.96104800881084052 0.50153933583143384 5.5193024109718962 84 85 80 0.81608645126050705 1 1079 3 1436 2 1010
252 0.18413087311628412 0.56369243981123696 6.2889884261657141 208 208 200 0.97899613175593125 1 1073 3 1073
251 0.22826187575644763 0.56455769495234143 6.2914646838232224 108 108 108 0.06513534186666417 1 1070 3 1091
250 0.022901118792825637 0.56101343696314065 6.296005598909959 152 154 149 0.78137850503740791 1 1069 3 1028 2 995
249 0.39365027096171695 0.48575783907363779 5.505982414858047 92 99 91 0.93019264581801064 1 1065 3 1206 2 917 4 880
248 -0.05342328375754235 0.56380254755024095 6.2955605968675847 212 213 208 1.4222609938293189 1 1064 3 1012 2 1000
247 -0.20527007659742669 0.58156950818672848 6.6009053558082513 108 110 107 0.39542605461822344 1 1063 3 954
246 -0.27220183301006839 0.58304778993188366 6.6083247418851689 77 83 91 0.74028415063380182 1 1062 3 944 2 993
245 0.79803488146554136 0.47554611988464113 5.4814640720578431 52 53 45 1.6621460359395479 1 1061 3 1346 2 951 4 883
244 0.45700365395031539 0.47978388296886387 5.4948974163043243 160 161 156 0.73522413725348712 1 1059 3 1220 2 907 4 881
243 0.49898768418283002 0.47563773091080186 5.4961455478465231 223 226 220 0.84768588221089392 1 1057 3 1229 2 908 4 878
242 0.53512558744494521 0.46575387429484649 5.504313618994872 218 214 211 1.018833340962275 1 1054 3 1207 4 873
241 0.83318534836964619 0.44577613859698373 5.4964325637833795 215 215 215 0.45390448262195421 3 1286 2 896
240 0.66531968574623124 0.45405338748860902 5.5081610349793131 231 231 231 1.7870930627445381 1 1039 3 1243 2 889 1 1038
239 0.56231982316907536 0.452710872003806 5.5196560662816339 210 207 205 1.60612887912236 1 1037 3 1172 2 875 3 1194 4 860
238 0.056680761696399268 0.51844902415958993 6.3247982345109026 154 151 144 0.61239262841929409 1 1036 3 974 2 954
237 1.3085318277134663 0.43419447060852312 5.396298387594519 151 156 149 0.98177606840088494 1 1033 3 1426 2 939 4 879
236 0.94853369841364865 0.43850209898891723 5.5006322438592195 192 192 194 1.4222760846314064 1 1032 3 1300
235 0.4588233818735985 0.44291721677766244 5.5204687102550558 205 206 201 0.27878408540667432 1 1031 3 1128 2 846
234 0.39496635886721032 0.44738535875527219 5.5332329231032036 87 94 93 0.54028810044422237 3 1115 2 844
233 -0.27193838543735005 0.53442952930376775 6.6406186240394449 123 133 135 0.8750151530195539 1 1029 3 890 2 949
232 1.3749536549956329 0.43076213070839703 5.3927927482993478 153 160 158 0.66191659455733332 1 1026 3 1438 2 946 4 874
231 1.0800657015596626 0.43542507247528761 5.447386216004638 196 195 196 0.76753094851222503 1 1024 3 1364 4 871
230 0.82674310771865778 0.43654284392818477 5.4886427881501634 227 235 237 0.07602086802724696 1 1020 3 1260
229 0.84692394528411352 0.43742124708978203 5.4930324307770997 204 205 206 2.078281128162335 1 1016 3 1253 2 890
228 0.86090132009554055 0.42773394563611694 5.4926054898189438 227 231 227 1.881053585863814 1 1008 3 1230 2 872 3 1254 4 856
227 1.0999125899067195 0.42067500492491328 5.4534544852517843 223 225 220 1.2377229501330183 1 1005 3 1332 4 867
226 -0.053371597973622953 0.48009207594979808 6.3437390400674207 70 90 101 0.63203272732387206 1 1002 3 905 2 898
225 0.71587059984429968 0.41023345709485559 5.516827158627077 135 137 136 1.4141806102826804 1 997 3 1154 2 818 4 832
223 0.7820066050503951 0.40707055075932819 5.510277199786751 156 156 154 0.95007096183189721 1 993 3 1169 2 821 4 837
222 0.38658182819655185 0.41027331542063017 5.5492555098681589 73 72 78 1.8483567080204804 1 992 3 1036 2 761 4 831 4 840
221 0.52270152388098889 0.40554536203581315 5.5444464035447627 172 175 168 1.120400952079688 1 991 3 1076 2 775
220 0.46223024447263128 0.40740940611419291 5.541843872215038 179 186 178 0.81827908788811854 1 990 3 1056 2 774 4 829
219 0.56050599387568778 0.40154616259159026 5.5400129058717242 232 232 232 0.45514194133831759 1 987 3 1079 2 776
218 1.3061248462001604 0.39656646809999896 5.4187632459204433 246 252 245 1.1806981488568977 1 985 3 1365 2 867
217 0.67229792923657716 0.39718615729246026 5.5252967908232851 222 224 223 0.40333954126618371 1 984 3 1110 2 784
216 0.45991788492397351 0.37211466385379166 5.5553656330469696 138 142 142 0.71264178453118832 1 970 3 1002 2 685 4 816
215 1.3074970701773998 0.36268534614278614 5.4447602784732005 170 179 175 0.60821385179199605 1 969 3 1274 2 808
214 0.044756447653184761 0.4236668749475318 6.5028212035525117 174 177 172 2.2092476445952358 1 965 3 862 2 848
213 0.022627967401752158 0.39185721935849865 6.5594928524426388 143 145 134 1.1082887565665331 1 952 3 809 2 817
212 0.92152226408273352 0.33618968074942474 5.6109207240714865 129 128 124 1.7846767942700152 1 949 3 1057
211 0.19249787250475819 0.39823354355791801 6.6499929831191711 232 232 224 0.73268866583611636 1 948 3 858 4 767
210 1.2276075537829929 0.32674058036682652 5.4772121445924631 170 171 173 1.097487847614407 1 947 3 1163 2 705
209 -0.020732345930933871 0.3941386107688169 6.5591816433018009 233 233 225 0.47127878623971126 1 946 3 803 2 820
208 1.3089940059315501 0.32670089505708588 5.4553189632789518 156 162 157 1.1753259647963197 1 943 3 1189 2 721 4 820
207 0.086362821594854283 0.39485261106501823 6.6384197258625264 115 115 103 2.0153997595754252 1 942 3 817 2 843
206 0.45821784224719742 0.33051291092819002 5.5662276695683133 209 214 207 1.4083222614010378 1 941 3 940 2 619 2 634
205 0.61614414823626351 0.32289015530864962 5.5628557086526067 139 144 138 1.6961434782078035 1 939 3 969 2 635 2 644
203 0.56284497685476786 0.32458457691552922 5.5423920760828835 112 113 105 0.84931109079942635 1 936 3 966 2 625
202 0.48917844965393931 0.32697433132021331 5.5537406346538383 127 135 130 1.4146455457184142 1 935 3 946 2 620 4 793
201 0.7234044788505033 0.3155932193234432 5.4984001986906277 102 108 106 0.54523705277091183 1 931 3 1004
200 0.8533066418323404 0.30677836088768423 5.5089904357327404 85 85 83 0.24481445040775987 1 926 3 1021 2 631
199 0.93118934229514583 0.29954114702382245 5.5402662580528954 105 107 106 0.7966187832734577 1 921 3 1025 2 639 4 786
198 -0.076083554159943778 0.34857848711360295 6.5735574941428823 189 197 199 1.4252103525558051 1 920 3 725 2 755
197 0.1727401709069622 0.34969635005677313 6.6627709526408285 208 206 190 0.4232467684061505 1 918 3 804 4 737
196 0.021409800376211652 0.34290369819342548 6.5747370552676827 143 146 137 0.36283702950223523 1 912 3 751 2 759 4 734
195 1.1633091378669445 0.28900586897749719 5.5228354377417048 126 128 118 1.0853156334283462 1 908 3 1070 2 661 4 778
194 0.45980518199755105 0.29129766056939765 5.5755304813971014 150 156 153 1.7518135923378484 1 907 3 892 2 535 2 561 4 747
193 0.39026047471492886 0.29632883405780458 5.5954685115374971 201 202 206 0.65959992988552973 1 906 3 875 2 560 4 757
192 0.098093032326436569 0.3406050884332133 6.6593335159607578 42 45 35 0.0092913414369276467 1 905 3 768
191 1.3124265342225498 0.28098598383923673 5.4795887606501772 139 150 145 0.94287426399571117 1 898 3 1111 2 655 4 788
190 1.1175307618981096 0.2799502917939467 5.5032728862442193 225 225 225 0.24487350678019743 1 895 3 1052
189 0.4310350269650931 0.2767856398159137 5.5787217319256674 163 185 176 1.741551919549619 1 883 3 868 2 507 1 882
188 0.11379651877473093 0.30495895354919811 6.6516312085026534 82 84 78 1.1729172113319442 1 878 3 730 4 703
187 0.48268465064671068 0.27426705701013221 5.9124528047274172 228 229 223 0.10807859036184897 1 873 3 849
186 0.185810759825559 0.30093717344540855 6.678321595580746 122 120 107 0.54332299380331162 1 872 3 748
185 0.22146637139545305 0.2956768182275642 6.6786860048542342 209 214 194 0.52824578974872727 1 868 3 758
184 1.3073937413405665 0.24536497210754188 5.4873456592728278 174 175 173 0.86927534129915929 1 860 3 1060 2 586 4 751
183 0.23355550059518035 0.26310753797830599 6.6868700920125512 206 203 201 0.74668531461533127 1 841 3 723
182 0.86098575021283452 0.23548235870476908 5.914412851935051 224 225 219 0.41761353226959308 3 903 2 612
181 0.68492660240047298 0.22688885940422135 6.0003150575739079 117 126 133 2.0842529056719612 1 836 3 841
180 0.64254261069133989 0.22812444345309554 6.0197219961245434 153 158 151 1.8662618481608597 1 835 3 837 2 593
179 -0.08022882629273953 0.2539630239281494 6.6504718215862528 150 158 163 1.382026416351402 1 834 3 602 2 662 4 686
178 0.96186242032541713 0.22739025137176239 5.9516622595470707 204 208 207 0.84145805437080001 1 830 3 913 4 709
177 0.47665217146472583 0.22284221816984887 5.7542011871288352 151 163 164 0.76820733060267643 1 829 3 789 2 464 4 704
176 0.10738722822085078 0.24604490589958972 6.6969160383417421 200 202 197 1.0289751878756166 1 828 3 653
175 0.047926262260576891 0.24981096143970904 6.6416102814885196 98 98 86 0.62617496527987904 1 827 3 633 2 668 4 691
174 0.93726184846228 0.2220075046372828 5.9550547199292136 90 93 97 1.1286736639549695 1 819 3 904 4 701
173 1.0713473156557209 0.21906339188682022 5.9218263838121761 200 200 200 0.53731992509123572 1 816 3 932
172 0.44116350367776014 0.21038308808266432 5.9973889279743542 97 114 119 1.1081382097231693 1 813 3 745
171 0.25017596891609212 0.22398502188184338 6.6592460276404744 166 177 173 0.25218498014283464 1 810 3 676
170 0.51275639700337305 0.18523808167500208 5.961239566591118 192 193 187 1.1988017106996709 1 800 3 736 2 473
169 0.18819052725689767 0.2050523164483278 6.6897445637499926 140 144 141 0.28372779950056687 1 799 3 629
168 1.2197847063153793 0.19009817753976818 5.9520937347866383 178 183 179 0.80251713932593949 1 795 3 928 2 606
167 0.78292500685774624 0.17882195479963275 5.944593357109647 230 230 228 0.71305747582421564 1 791 3 818 2 503
166 0.24703073165066874 0.19260442856985655 6.7049935639669052 145 169 163 0.67976588039808916 1 790 3 634 4 666
165 1.3090862392421505 0.18290405794584003 5.9063441875020679 141 153 148 0.57660479177420931 3 942 2 600
164 -0.016310772074349389 0.18000168032254577 6.6734193338838743 153 153 145 0.48572147761042717 1 784 3 544 2 598 4 654
163 1.2643703068850527 0.16558650441388886 5.9455144392486678 227 229 226 0.50786412466966435 1 780 3 924 2 573
162 0.052761175545776473 0.16555464324709412 6.7323793415217441 46 46 38 1.0748910162875638 1 777 3 548
161 -0.13901336546738313 0.16540753607434625 7.106431821272575 101 103 102 0.67298133652493908 1 770 3 510
160 0.81322081621927833 0.12750503512635183 5.9924978113064702 216 218 215 0.73648736523948999 3 772 2 433
159 0.17213974803252746 0.1548716648294079 6.7133497815072145 157 158 152 0.39386379530829868 1 764 3 585 4 646
158 0.51278800803635538 0.12010591599237205 5.9828826924401532 170 170 169 1.1936795098567863 1 745 3 644 2 390 4 660
157 0.13978285011437616 0.12262219170349944 6.7266001799823787 84 86 80 0.32544502103460821 1 742 3 540 4 634
156 0.048887814764205784 0.12186778814915009 6.7558876685733331 129 128 126 1.3526727522165087 1 741 3 511 2 551 4 631
155 -0.066755847590295569 0.12067438643057593 6.7609014755935126 138 138 136 1.45442119246351 1 738 3 487 2 516 4 626
154 1.187827441506478 0.11112764574409012 5.973386628384608 55 60 56 1.3338328210079815 1 733 3 855 2 456 4 661
153 -0.0086054644828807425 0.10773545089648884 6.7357188963389953 153 153 148 0.56972371673825151 1 728 3 488 2 506
152 -0.22727537603919445 0.086927014313954554 7.4210163692498661 170 187 210 0.46018899761663201 1 720 3 436 4 591
151 1.1319525637463874 0.083880977211774788 5.9735902456851351 151 154 147 1.2577733887282538 1 713 3 810 2 417 4 648
150 0.5117294668403839 0.066166853483654031 5.992918194992324 156 157 151 2.4071473165205908 1 709 3 586 2 333 2 343
149 0.722502152232818 0.067791320014222112 6.0307594946240624 227 227 226 2.3932209218961273 1 704 3 649 2 377
148 0.17336379250032152 0.053865583407724849 6.7167770282285835 216 215 210 1.2151317288333363 1 703 3 491
147 0.80753259702582192 0.061212871917940781 5.9770761848545231 20 18 21 0.62857358632908755 1 700 3 681 2 358 4 638
146 0.61047252550935927 0.054132849783494641 6.0578993376364263 152 153 147 1.4232967113723289 1 697 3 598 2 356 4 632
145 0.03747657442502067 0.04942571675646662 6.7714977635624578 165 175 177 0.28033006534567473 1 695 3 448
144 1.0309308415595437 0.049575248567473917 5.9474051930092724 33 34 29 0.56129668450606696 1 689 3 747 2 364 4 639
142 0.21360638754853711 0.037913911627922126 6.767699363586674 85 86 80 0.67935369145709001 1 686 3 494 4 592
141 1.4009186356940224 0.041798157474519759 5.8595748109268992 145 158 152 0.70514722357129656 1 685 3 842
140 0.38950837937536786 0.038931068995399609 6.0268160554919685 177 178 162 2.2655224728891552 1 684 3 521 2 299
139 0.64190657895682335 0.035174417141956071 6.0366704342694764 145 146 145 0.010299468329469316 1 680 3 596
138 0.84018277200832969 0.026612899986713623 5.9720700487602008 138 138 138 0.90633623971005006 1 675 3 650 2 322
137 0.77079559295961664 0.033306102596904918 5.9604087779225807 170 170 168 0.97523488608092657 1 674 3 624 2 320 4 619
136 1.1413862443905995 0.025107881549399858 5.9866569214628811 153 150 145 0.59352924800821749 1 673 3 749 2 359 4 621
135 0.95808354875173696 0.022705021492355537 6.0169011364994756 150 154 156 1.0940653377189298 1 668 3 692 2 341 4 616
134 1.3027748106459591 0.021506624009413222 5.9601425644941077 105 111 107 0.39455860158086659 1 666 3 792 2 371
133 0.99947223921326178 0.016914376378141804 5.9575704038598492 144 144 144 0.74110046243808814 1 665 3 698 2 327
132 0.46088326606577018 0.0138130069627867 6.0218795179205129 177 183 181 0.44695341338395328 1 663 3 518 2 278 4 606
131 0.24479043350248642 -0.0060877841156948276 6.7977871736235018 96 100 99 1.5758634442348685 1 662 3 458
130 0.79410355583304337 0.0091394493250312459 5.9869464062389728 219 220 221 0.49167650449643546 1 656 3 618 2 302
129 1.3021739388037774 -0.0088021586041230337 5.9212798252832055 137 144 137 1.8353489185718856 1 650 3 759 2 318 4 613
128 1.1108747149999698 0.0024098691330101119 5.9871061519456337 136 137 132 1.6326399230155364 1 649 3 715 2 337
59 1.4023667042599035 -0.22954302521427045 5.9767195473536168 204 206 205 1.9058723691293415 1 461 3 568 2 158
58 0.85399500300683773 -0.24467776876369268 6.0904227313144546 171 171 170 0.76352056875663254 1 457 3 409 2 126
57 0.067463763997846649 -0.31306547240810628 7.0246724173560784 146 166 181 0.57624474842363682 1 456 3 214
56 0.9819077311282336 -0.24975597917821474 6.0665214182887306 198 200 198 0.12245857761420587 1 454 3 437 2 127
55 1.0514693311960122 -0.25280853840471779 6.0595103026148465 124 125 123 0.48480645336043571 1 451 3 452 2 129 4 487
54 0.90371771001931822 -0.25999719071167576 6.0859166907090687 195 195 195 0.044931322663045017 1 449 3 410
53 0.51137197944251367 -0.26605055480015866 6.1398440483725034 142 141 137 0.91718659258380797 1 447 3 290 2 114 4 469
52 1.4237403982838068 -0.25581275150425281 6.00788935613223 198 199 195 1.5285987233897069 1 444 3 550
51 0.45931527609964773 -0.26986347006070005 6.1414944308213597 117 118 113 0.24370199215339608 1 443 3 271 2 111 4 463
50 1.3733080213627982 -0.26608306562198697 6.0141088403960419 139 141 136 0.56207728494153675 1 442 3 530 2 133 4 484
49 0.89618453711069401 -0.28643680835829527 6.1642415420058754 164 167 171 1.207655312522208 1 438 3 387
48 0.14171414504114865 -0.34738971975691629 6.9760111168431678 148 148 146 0.77413439898592229 1 435 3 205 4 416
47 0.17911782021342484 -0.35048626287933066 6.9418053435530886 135 137 134 1.5790967197350929 1 431 3 212 2 199
46 0.21456399701881568 -0.35710831659431591 6.9176219510211379 138 140 135 0.69203360494718036 1 429 3 216 4 410
45 0.39448382555991485 -0.30271619640281039 6.1520963892881415 95 95 84 0.71350584552971874 1 427 3 224 4 448
44 0.49912730888487877 -0.31148681049300014 6.135179888667933 133 132 128 0.87228141544179139 1 418 3 254 2 92
43 1.327808600751877 -0.31265938777430741 6.0537573482485652 126 127 119 0.24279256750747477 1 416 3 483 2 117
42 0.41610199441160789 -0.31854047919397116 6.1578656482654139 164 163 161 1.3520254077489333 1 415 3 225 2 89
41 1.3734996816301774 -0.31904830220121866 6.0340031501117171 90 91 85 0.61775679009061135 1 409 3 495 2 115 4 457
40 0.89152922602346607 -0.3462187151933413 6.1799260060917085 96 97 99 0.71453146808582513 1 401 3 346 2 106 4 438
39 0.15812302764483707 -0.4353343758234321 7.0754084461889217 159 162 151 1.5973978780427576 1 400 3 167 2 176
38 0.79086801588624089 -0.34902307640133451 6.1767625216131448 195 194 192 1.7269568963342434 1 399 3 311 2 101 4 442
37 0.23493325852257552 -0.42046421176987753 6.9383041595157744 150 149 144 1.0641409969739635 1 394 3 184
36 0.31964815877903807 -0.43082338022326078 6.9637436772769226 164 163 158 0.77969671714083455 1 393 3 197 4 383
35 1.3014073086178577 -0.35241955408398723 6.0808046074254012 75 77 74 1.144129832801112 1 391 3 447 2 108
33 1.403658290792023 -0.36600319984715862 6.0347080505022213 99 98 93 1.5766003753794307 1 378 3 457 2 98
32 0.85658139319977611 -0.39249246087215478 6.1719612681307385 208 208 206 0.52648193246822006 1 367 3 302
31 0.79105317541524356 -0.39256934469110177 6.1390191303409072 57 54 55 0.48791590721294376 1 364 3 277
30 0.26366820172259081 -0.44634109672983818 6.8914098754633768 194 193 188 0.44592602348895088 3 168 2 144
13 0.73771740116704643 -0.84163807471729335 7.7138516291355756 137 134 130 0.31064228403030214 1 255 3 138
12 0.79975320396356586 -0.85610903125788163 7.6521890538962936 214 213 211 0.55557188235781518 1 248 3 141 4 253
11 0.29687464022733762 -0.84796963589372609 7.362929472037349 124 126 112 2.1214631466105129 1 239 3 26
10 0.27270201494219537 -0.84561770488438004 7.3742338429886942 112 112 100 1.2716819184769925 1 238 3 23
9 0.94871055346353195 -0.8850065093145425 7.5663892857319262 202 201 199 0.98813693694819271 1 229 3 157 4 247
8 1.0166109544500297 -0.88742826708091038 7.5136183392768974 156 158 154 1.2152821823656952 1 222 3 173 4 232
7 1.1009590291041405 -0.90109748323732797 7.543005156299829 183 185 182 0.7454644197508532 1 219 3 183 4 235
6 0.78971648727892862 -0.9374865247556825 7.6762189891239476 154 156 152 0.60049331901061531 1 211 3 101 4 219
5 0.86138902567788433 -0.95611124853222407 7.6203269141465988 223 224 218 0.40305249237879154 1 201 3 103 4 217
4 0.92662672696802462 -0.96569112192552042 7.5805157068607212 183 184 180 1.0797325963071602 1 197 3 109 4 212
3 1.0172867590048411 -0.97873712011942726 7.5658596412378891 221 223 220 0.5384874763897235 1 189 3 117 4 210
2 1.0923365560134739 -0.98467724341801155 7.5668505464172142 213 214 209 0.92167316315597325 1 187 3 134 4 207
1 0.95999835872065198 -1.0685923538368958 7.5808409638188667 143 142 138 1.7453398010948273 1 173 3 81 4 197
14 0.91278312895103486 -0.62445706228909725 6.2125890354126803 148 147 143 2.1025515607876879 1 256 3 162 4 316
15 0.69027037638609712 -0.81567659264575276 7.7367897088093223 205 207 206 1.1885520667127352 1 264 3 137 4 267
16 0.29882555828055557 -0.71767664389753372 7.2864428785336619 178 179 184 0.90969651828568576 1 271 3 69
17 0.23796650213655163 -0.70850918596807944 7.3399856285531833 156 152 160 0.84810642248787138 1 275 3 68 4 281
18 0.34012179584046642 -0.69772167093813153 7.2889680820849883 149 144 150 0.51283016278743387 1 277 3 87 4 283
19 0.89026633086191942 -0.5566067860694035 6.2169260920822147 133 132 127 0.92996612064122475 1 278 3 198 4 348
20 0.86350654877108213 -0.50506717787906541 6.1920822096767747 88 90 77 1.9802450538360172 1 295 3 228 2 60
21 0.9859702426838407 -0.4989381575814445 6.171709233387551 142 142 142 1.9141845157982487 1 309 3 264 4 365 1 297
22 1.0495128766996287 -0.44996148862577096 6.1445237494301557 113 114 108 1.2885069816367809 1 324 3 312 2 75
23 0.91988934399328903 -0.45074386818117335 6.1771417572700162 197 198 197 1.187508528901599 1 326 3 281 2 72 4 387
24 0.98179207727592455 -0.44208301686246382 6.1452676975262266 150 152 151 0.68624098976988523 1 331 3 303 2 73 4 393
25 0.85413890764066713 -0.43634022806712719 6.1706364238305884 187 186 186 0.64322693598818748 1 338 3 272 2 71 4 392
26 0.78761646543013764 -0.43123955005605069 6.1731216789030405 86 86 81 0.86100022907673091 1 342 3 257 2 69 4 395
27 1.044993997235335 -0.41354393316915633 6.1489431298295596 110 112 103 2.0125858242705505 1 351 3 329 2 87 3 338
28 0.91856494195317706 -0.41064978117168643 6.1768226626878411 140 142 139 1.3009927557440308 1 354 3 306 2 85
29 0.24733166155987649 -0.49670624122557122 7.0340142178746365 182 182 174 0.73620991906913746 1 356 3 133 4 358
60 0.78502085765806595 -0.23771704788354181 6.0914304275144948 180 181 176 0.32408194028432608 1 464 3 392 2 124 4 486
61 1.2240430402104963 -0.23780334151960664 6.086422945267306 228 230 224 0.4998640215319004 1 465 3 515 2 164
62 0.17627444853776633 -0.28196019028856151 6.9015073535848961 137 138 130 1.493870256036222 1 473 3 252 4 445 2 228
63 0.89687325827105335 -0.22020945796910191 6.0763619049456938 232 230 231 1.837465676479864 1 475 3 441 2 142 4 497
65 0.13036256700434887 -0.26595921449851539 6.9056495509867055 207 207 205 2.1091241875873203 1 478 3 249 2 244 4 444
66 0.69234856333893569 -0.21836250158388376 6.1428476158292806 209 211 208 0.55621741728471763 1 479 3 382 4 496
67 0.31367484898640891 -0.25962219445206464 6.8082394898973142 193 194 187 0.18764691538177375 1 482 3 296
68 0.45938129600136679 -0.21402695303735536 6.1161267268011361 121 121 121 0.73917971066813926 1 483 3 314 2 121 4 493
69 0.51120697382119595 -0.20669840373797971 6.1133139720832084 170 169 165 1.2165596388151814 1 484 3 335 2 130 4 509
70 1.2543544396083561 -0.20084695843035077 6.0480689353877963 208 210 206 1.4150044836126288 1 488 3 546 2 182
71 1.3129405996902359 -0.19388086308350888 5.9971211178198214 161 162 158 1.9683811436927683 1 489 3 573 2 177 1 504 4 532
72 0.85514467386442006 -0.20410023833444141 6.0796645695327314 190 190 188 0.75357968774357398 1 490 3 440 2 151
73 1.0807206372140148 -0.21232892757527194 6.0418700214841401 217 217 217 0.21264658846695439 3 500 2 159
74 1.1880706451045642 -0.19799974534042714 6.0584578230421968 188 188 188 0.6280830026897809 1 492 3 538 2 179 4 523
75 0.78214141852288366 -0.19153329511327338 6.0688936588883617 237 239 236 1.66969729491499 1 496 3 431 2 150 4 521
76 1.4140475103682133 -0.18217699688190098 5.9597231376896875 100 101 96 0.90080906054452414 1 499 3 608 2 189
77 0.076119565292830343 -0.24046930951690032 6.9537013925544162 154 168 184 1.6682321304119803 1 503 3 251 2 261
78 1.3326409252225755 -0.17852754065494797 5.9678913122850021 71 72 66 0.71446699376331968 1 507 3 594 2 184 4 533
79 0.45798527329192917 -0.17468199371752163 6.0840692611142195 200 201 195 0.5310147664692676 1 516 3 343 2 137
80 0.13703790653388456 -0.208975889516195 6.8580403869132276 12 12 10 1.5074728849786063 1 526 3 285 2 271 4 471
81 0.6616589148679306 -0.17053402642264187 6.1269163546467631 219 220 215 0.90923799181252041 1 527 3 416 2 174 4 526
82 0.72223137443294583 -0.16992769361683563 6.1089421934638848 191 191 189 0.45518499197889889 1 528 3 433 2 175
83 1.2975888780258773 -0.15884286316472168 6.0182538567454387 64 64 62 1.3234058838420268 1 534 3 599 2 205 4 548
84 1.0625833556234365 -0.1561069736238751 6.0078758769608847 74 74 74 0.67902222286335356 1 536 3 537 2 188 4 538
85 0.94876226631312621 -0.1487793565366366 6.0149867570899893 60 61 55 0.49452391446307498 1 538 3 514
86 1.4101989653550848 -0.1406180472630541 5.9442533946678555 184 185 179 0.51699929006274736 1 540 3 651 2 215
87 0.76981125131519323 -0.1403444017832523 6.0435139598364938 50 50 48 0.87250667550649186 1 543 3 467 2 181 4 546
88 1.3383360504657298 -0.13963931146310543 5.9710742418781368 164 165 157 1.6967258496596269 1 544 3 626 2 209
89 0.17418047607785614 -0.1687290206587701 6.8466988423047601 192 189 181 0.67272970263099174 1 548 3 323
90 0.49859243930633734 -0.13190853475921543 6.0639774021160182 102 104 101 0.62250243475594946 1 549 3 391 2 173 4 537
91 0.42068497236167185 -0.1275806681897837 6.0706245650702932 127 126 123 0.79275856219511809 1 550 3 370 2 170 4 535
92 1.2991156531231978 -0.11309486613129316 6.0029488624812322 195 195 195 1.4065963076859425 1 555 3 640 2 245 4 556
93 1.374698811622393 -0.11108513776013768 5.9476864932766844 114 114 112 0.69304557446551807 1 556 3 670 2 233 4 567
94 1.0696020044352279 -0.10234119976000877 6.0093554477974847 101 102 97 1.928221381955197 1 561 3 589 3 597
95 -0.0049680452307085954 -0.14578987632255574 7.0365162147203701 48 67 81 0.6109235794752621 1 566 3 304 2 338 4 501
96 0.28740141021451043 -0.13088251673175089 6.8384910944540263 223 223 215 1.37860778235621 1 567 3 380 4 525
97 0.54634344624363329 -0.11298813352813497 6.0908808957465581 60 62 58 1.4707937738866739 1 568 3 428 2 193 1 554 4 545
98 0.79372500008969227 -0.09998789232898303 6.0317142186626338 196 196 196 0.8647766994303332 1 569 3 513 2 213
99 0.17132237926675156 -0.12558720547682078 6.8247275710821746 195 192 183 0.095200864455200512 1 572 3 351
100 0.2146436474010133 -0.12266887997883968 6.8320416715674988 80 82 72 0.46591780938689187 1 575 3 363 4 524
101 0.93687518147708027 -0.085377989731382886 6.017568006773411 217 219 217 1.3839549629264691 1 578 3 567 2 236
102 0.77627251519027607 -0.085544597873250638 6.073627852370878 89 90 85 0.81849709625086753 1 581 3 524 2 232 4 566
103 1.3348986698925336 -0.074720778069658877 5.9350847665265203 205 206 202 0.62236962050073874 1 582 3 701 2 260 4 579
104 0.88934163996032845 -0.072297473628699649 6.0045906454011266 198 199 193 1.4515600912698643 1 583 3 566 2 240 2 241
105 1.4153303642684669 -0.078299409163777534 5.9182705479448812 229 229 227 1.566049168100226 1 586 3 720 2 258
106 0.54759841299552636 -0.071235079924663824 6.084286539493899 121 122 118 0.84232793778371495 1 588 3 463 2 229 4 565
107 0.38726077501667727 -0.069818173007933471 6.0932314667619698 48 48 56 0.27711771374597827 1 590 3 415
108 1.0446294298297067 -0.037582915067336409 5.9666506636982941 181 179 180 1.005735173633614 3 639 2 276
109 0.10914932944552605 -0.095290587332377719 6.892602175529686 120 119 124 0.75124504482570209 1 593 3 358 2 357 4 530
110 1.1696237461596919 -0.067539910803927516 6.0170631460136788 41 40 35 1.0053168564199773 1 594 3 655 2 269 4 578
111 1.212065247519938 -0.074052248239374674 6.0206565821343982 49 51 50 0.32245491531085146 3 661 2 274
112 0.82970762447406876 -0.063022978218416292 6.0062827935223106 179 182 175 0.57262151968611474 1 599 3 549 2 243
113 0.98084766622726027 -0.057702021051861618 5.9920639380750771 207 207 207 0.68162786465347158 1 600 3 605 2 257
114 0.4598994309384089 -0.059012557828889367 6.0503514206779672 63 61 65 0.56264154594566707 1 603 3 445 2 221 4 569
115 1.2427121665624439 -0.050576552667331465 5.9950005860865332 109 109 109 1.9334101800575803 1 604 3 700 2 286 2 296 4 595
116 0.17116620645959812 -0.077629816214203118 6.803681008241151 191 190 184 0.44803016363465697 1 606 3 385
117 0.84878857023212495 -0.039197305013627615 5.9993803438050595 196 196 191 1.5606520607653009 1 612 3 587 2 267 4 583
118 1.3765878653177761 -0.038379449688102085 5.9208885399451754 89 88 93 0.4315008766725178 1 614 3 755 2 300 4 604
119 0.58549413079819068 -0.042587965276304374 6.0801473017028851 169 171 166 0.52196284985126895 1 615 3 505 2 251
120 0.63488879435322698 -0.035910778499932516 6.0692353707876983 34 35 30 0.87716045594984116 1 619 3 523 2 264 4 582
121 0.62000193722352681 -0.029856451642845394 6.0682019096486162 42 43 38 1.8910548546794832 1 625 3 522 2 263 2 272
122 0.92503743121958981 -0.044869293216035611 6.0195560428576229 58 55 48 0.28918709570268297 3 601 2 268
123 0.96274088607265829 -0.02462110222409114 6.0033512340270887 90 91 95 0.98997399490738081 1 631 3 625 2 291
124 0.12207339123323357 -0.041242420989798079 6.849450144787923 153 157 152 0.3135094089665158 1 632 3 404
125 1.1156415606191679 -0.02127556014656562 6.0086296827606178 185 186 178 0.77796577741088946 1 633 3 689 2 311
126 1.4228123666323091 -0.0044981307813908855 5.8751705389756035 167 167 167 0.83737849497497363 1 645 3 801 2 331 4 614
127 0.54425618558462463 -0.0067494770983753116 6.0510856363371914 185 185 183 1.2199895494170709 1 648 3 519 2 279
258 1.2837923139338412 0.51243076925282938 5.3801400841214146 202 203 195 0.48341089253663933 3 1574 2 1105
259 0.42681825454868849 0.54342517789995504 5.4797226735062576 221 222 217 1.232644260611361 1 1114 3 1383 2 1022 4 915
260 0.46168013929740759 0.543648973013935 5.4790622133624005 177 178 173 0.54437753211582407 1 1117 3 1397 2 1026
261 0.77533299025323399 0.54456854180187875 5.4648717717963322 191 192 185 0.47078066105728777 1 1118 3 1492 2 1094
262 -0.27637009486005848 0.66874208104493649 6.5702619252765357 205 216 224 0.68062519642521391 1 1121 3 1054 2 1119
263 -0.20464234816365312 0.66479870572918009 6.5689409877947167 157 158 157 0.2001785509241264 1 1122 3 1067 2 1120
264 0.73194569715537483 0.54704992046910261 5.4718473350051315 197 199 191 1.1611236090030361 1 1123 3 1488 2 1080
265 0.12857613115177915 0.63468331892213348 6.284982731950306 217 218 210 2.2322888602671491 1 1125 3 1177 2 1114 2 1136
266 0.50132545027774333 0.55835042517845423 5.523028148392223 150 155 151 0.48419580913668003 1 1126 2 1073
267 -0.057316259729174424 0.63570777610097884 6.2607872024976565 220 221 215 0.78817916782846531 1 1128 3 1130
268 1.3024519339701166 0.5502023581431873 5.3563696669838663 211 211 209 1.384582988812803 1 1133 3 1669 2 1206
269 0.12669380440557668 0.65803256200998961 6.278511125257614 176 177 171 0.895017539263257 1 1135 3 1241 2 1149
270 0.025390333653279251 0.65281315461471512 6.2627661583924468 175 175 167 0.83903335273203172 1 1139 3 1191 2 1140
271 0.059693835903833009 0.65827985221165775 6.2697492952926943 187 187 179 0.49987732918635025 1 1140 3 1215 2 1146
272 1.0484662168764161 0.56844852863512629 5.4545822191698585 109 110 113 0.86539834060563214 1 1144 3 1609
273 0.97681299773965902 0.57606264431338217 5.4678684738339509 222 221 229 1.1402276806694562 1 1147 3 1608 2 1197 4 934
274 1.061867166804483 0.56551306140781044 5.4189305725965591 196 195 190 1.4213402520630929 1 1148 3 1622
275 0.89319169466579262 0.57871914076484188 5.4793040649176374 72 73 65 1.1183759093161805 1 1150 3 1586 2 1188 4 940
276 -0.20392407690233949 0.71479412081511007 6.549945869791042 178 181 174 1.2199304664526249 1 1152 3 1159 2 1190
277 0.024874582022160141 0.67571517338982301 6.2531803895208711 202 202 194 0.83701148800451941 1 1156 3 1250 2 1177
278 0.77919382450522623 0.57717724803948334 5.4460784900816277 215 214 212 1.3459609426712147 3 1573 2 1168 1 1153 4 933
279 1.2906799777581106 0.57629903719361875 5.382865463248816 112 115 114 0.30023028054002271 1 1159 3 1702 2 1271
280 -0.27419553637424154 0.71819245671708765 6.5457673785559152 171 184 201 0.31368821675182346 1 1164 3 1143
281 0.37096440602768233 0.58625460201564339 5.4749153447405332 138 146 157 1.3378222930099382 1 1165 3 1475
282 0.7058562880687298 0.59264324600274343 5.4740628606805792 133 134 136 0.91138144326443804 1 1166 3 1572 2 1202 4 938
283 -0.20493514766398546 0.74326546458086429 6.5386807783504164 185 188 179 0.54808005694014494 3 1214 2 1238
284 0.46390796125157618 0.59407712699323034 5.4621099219893834 173 174 169 0.63516935380742889 1 1169 3 1531 2 1162
285 0.51055603235198133 0.59450445817177466 5.4817915061453579 87 91 94 1.5057695090665704 1 1170 3 1534 2 1163 4 942
286 0.025383620838548615 0.69510772407852794 6.2483056440093696 192 191 186 0.85434010488803125 1 1172 3 1305 2 1216
287 0.53654188363145572 0.59691247134127368 5.4943335800422828 94 96 83 0.80415082415144601 1 1173 3 1535 2 1178
288 0.058494937305783118 0.69723789239002365 6.2565575453620204 167 166 161 0.50012124756558596 1 1176 3 1319 2 1218
289 0.080855122617986941 0.6974048923379933 6.263815972756511 226 226 221 0.28116382723866079 1 1177 3 1324 2 1219
290 0.75331314391695336 0.60321880960148877 5.4474675492123001 125 122 125 0.21251367533513812 1 1184 3 1628 2 1239
291 0.98592613915395899 0.61183502080702756 5.4576200613659651 147 147 152 1.3004645892836049 1 1193 3 1680 2 1295 3 1681
292 0.46098687940723893 0.62688243579472314 5.4364950303051565 194 185 185 0.21319626899284683 1 1213 3 1624
293 -0.26171134764493542 0.78583833256486102 6.5735419445613505 116 111 110 1.4857645022964905 1 1220 3 1294 2 1292
294 0.025436597709311171 0.74104527218226046 6.230783875749017 201 200 193 0.95392224594261465 1 1230 3 1407
295 0.060682124517094455 0.7431075407679224 6.2386517182695185 203 202 201 0.68958573504417908 1 1238 3 1417 2 1298
296 0.42630267536598487 0.63928488068895295 5.446081661531804 177 175 161 0.76507992791480273 1 1239 3 1650 2 1285
298 1.0985274603918715 -2.0508059214515035 8.4157185034339186 104 111 95 0.8674749206108654 1 78 2 19
299 1.1952942967502991 -2.0370602441823951 8.5001399898971304 165 169 168 1.0306238185761816 1 89 2 26 4 65
300 0.87131480659736193 -0.60864066314328391 6.2200663680928754 144 145 137 1.4101016825592554 3 169 2 38
301 0.77826290128140085 -0.55678208436724086 6.213819162986832 121 126 117 0.77737497872596251 3 174 2 43
302 1.0487044338750156 -0.57009354356586739 6.1806758726788491 121 121 121 0.60275162233067825 3 235 2 45
303 0.78127167157696564 -0.54707849906927053 6.2818948781602835 169 169 167 0.18048120285980318 1 287 2 53 4 347
304 1.0515022924809547 -0.50123856931195854 6.1524490072002296 137 139 133 1.6786616157617438 1 301 2 62 4 370
305 0.85335642559832992 -0.49103293329202108 6.1995142653218984 96 98 85 1.0570622681653543 1 311 2 63 4 368
306 1.3878620141257183 -0.55028943112244399 6.1941044995423571 227 231 222 1.3186400811570222 3 339 2 64
307 0.9601625782885963 -0.49446993000843492 6.1921312535121675 125 126 112 0.18104957023147691 3 261 2 65
308 0.47599787196701626 -0.45047880730637208 6.2683489355149042 185 186 180 0.27630589140365275 3 154 2 67
309 1.4035251243246314 -0.45425028988720068 6.0997696178340277 183 190 183 0.67789753345914505 3 401 2 78
310 1.0143505215134381 -0.4211672140833807 6.1462925901785299 41 42 34 0.68326502363306885 3 326 2 79
311 0.89362648250208399 -0.41607652408715906 6.1974676345922113 125 131 118 0.094359402441891949 1 352 2 84
312 1.332568560272803 -0.43872834297674751 6.1614238023044194 207 207 202 1.241310124172657 3 397 2 88
313 0.96468782937778164 -0.41411973232666383 6.2125340358879431 106 109 100 1.6953934835699069 1 360 2 90 4 401
314 1.3318496181404356 -0.42683985845317834 6.1670579143664259 173 172 167 2.0276263663421004 3 411 2 91
315 0.53574462795398547 -0.3128076545100365 6.1719582464575451 132 134 129 0.9865893863230687 1 425 3 260 2 99 4 451
316 0.68637636838705984 -0.33351084499966349 6.177975620353644 151 157 153 0.77437717594311017 1 408 2 100 4 441
317 1.0487356662053382 -0.36682176927989468 6.1501292346936021 108 109 101 0.53108771804714927 1 388 2 103 4 433
318 1.1404971899167426 -0.36792515789000374 6.1295795836142908 159 159 157 0.73629617074048603 1 389 2 104
320 0.41190712700297233 -0.25976208832349151 6.1564168972697004 148 152 138 0.80333568654095244 3 266 2 113
321 1.4261445550736029 -0.31456572494440621 6.0254823448764601 151 156 150 0.7912946631714628 1 413 2 118
322 0.39186924788084088 -0.2417586100001326 6.1963114037956313 202 204 195 0.65885817531948609 1 463 2 119 4 477
323 1.1079880407592584 -0.27432224176149261 6.0739361238705669 112 114 103 1.4118848099582311 1 439 2 123 4 473
324 0.81931933508155341 -0.26931208943578927 6.1587746075476311 96 99 88 0.17524620071545605 1 448 2 125
325 0.42130359254718719 -0.17438202499879368 6.0905785945736639 142 145 133 0.8612621533905892 3 331 2 136 4 513
326 0.49318400110249472 -0.1811052917561396 6.0889354975303167 142 148 139 0.77470398633117665 1 514 2 138
327 1.3274481120960171 -0.25700734043404988 6.0329222230059401 109 113 99 0.0037072492970936684 3 526 2 139
328 0.95502971376363188 -0.22864079782037655 6.08205501412505 87 88 80 1.3814433212509085 1 476 2 141 4 498
329 1.315501431171715 -0.27062657405191465 6.0842790735486485 130 131 118 1.1805764750208805 1 440 2 143 4 483
330 0.74601238357239419 -0.22003663104187127 6.1297589553815195 119 120 114 0.83454724466064856 3 394 2 145
331 0.82248195610252772 -0.19221080177913702 6.0590682498700428 134 140 132 0.94861629895923583 1 497 2 153 4 518
332 0.97940810185206317 -0.20661531231995617 6.05175039268393 148 151 143 0.51055371131863114 3 473 2 154
333 1.3375856319488986 -0.22931378754042181 5.9980862086258142 145 149 136 0.38025126018359218 1 466 2 156
334 1.3779268489252432 -0.22970478229189256 5.9883800648867158 136 137 128 0.026117105793300358 1 467 2 157
335 1.4423704011567136 -0.23715668232011305 6.0210441085359836 132 134 133 0.391535574024306 1 462 2 165 4 510
336 0.53906895548174516 -0.17091596945987514 6.1534829960529951 105 108 99 0.65215430540012365 1 532 2 172 4 520
337 1.373043617562874 -0.18709538313671953 5.9783836210050518 91 94 83 0.17877341432235497 1 498 2 185
338 1.456818066917003 -0.20294634045964727 6.0029931478342675 134 138 131 0.27301312520505649 1 485 2 187
339 0.3820246096061487 -0.10677949969063022 6.1117369677223419 152 152 142 1.2873407425315688 3 377 2 192 4 544
340 0.49803138267208269 -0.092809259023725887 6.0496405195780749 115 116 110 0.65417361674810315 1 574 2 196
341 0.42027092782361353 -0.089406325529274577 6.0728226437782657 147 151 137 0.95510199343153035 1 576 2 197
342 0.71570879949828647 -0.12619654784602935 6.0903390172981382 29 30 24 0.28531594290628887 3 464 2 200
343 0.76971366482024217 -0.12454912137922497 6.076659743609568 53 54 46 1.6226050968983856 3 482 2 201 4 551
344 1.0665210537432073 -0.13322932827500106 6.0001078543291078 69 71 60 0.64122874297529298 3 553 2 203
345 1.2393513711706468 -0.15389528472233077 6.0244172173313721 59 61 50 0.45281971930677722 1 537 2 207
346 1.4644780942385529 -0.17069428685201188 6.0055607018678128 132 135 128 1.1117550534898715 1 518 2 210 4 539
347 0.95703006094126797 -0.10334247353049114 5.9993155472628112 161 162 154 0.65161076917840355 1 563 2 216 4 560
348 1.0438385574600895 -0.10982708443215133 5.9906955523301217 136 139 128 0.65521704679389647 1 560 2 217 4 561
349 1.8547593689061301 -0.4625668133984539 6.8337450959434225 109 114 108 1.3579970301895898 1 370 2 218
350 1.8770737842099705 -0.46091056552669768 6.8417214803028372 109 114 107 2.224488433159852 1 375 2 223
