# 3D point list with one line of data per point:
#   POINT3D_ID, X, Y, Z, R, G, B, ERROR, TRACK[] as (IMAGE_ID, POINT2D_IDX)
# Number of points: 440, mean track length: 2.4601769911504423
452 1.6363629436498881 1.0913137443878798 6.4016827296459651 126 128 118 0.87240753729941767 1 908 3 1070 2 661
451 -2.8115666317266417 2.2891599429537499 8.6376720981112847 205 216 224 0.75104820167448405 1 1121 3 1054 2 1119
450 0.77023124321387781 1.0552498589973824 6.2555607313933557 85 85 83 0.23296140354289951 1 926 3 1021 2 631
449 -2.7976521789983599 2.072721637735337 8.7859772704428174 77 83 91 0.90270434844325598 1 1062 3 944 2 993
448 -2.0783302756884017 1.7142722009425899 8.1774228980587562 70 90 101 0.47920473601212676 1 1002 3 905 2 898
447 -2.7993613968703883 1.9546282376295698 8.8988676436130554 123 133 135 1.0115443719838513 1 1029 3 890 2 949
446 0.01505043101015735 1.0483300681853751 7.6301278176601555 153 158 151 0.96196368133499566 1 835 3 837
445 -0.3484133155584701 0.84889238965331615 6.8543081706719793 151 163 164 0.55788422325965181 1 829 3 789 2 464
444 -0.53262371856111645 0.92462153461927543 7.5140753517979837 97 114 119 1.2125074786478716 1 813 3 745
443 -2.2077417378502706 1.4518665932239907 8.814575803447525 189 197 199 0.21972999807419519 1 920 3 725
442 -1.7145107363921046 1.2818415744689364 9.3102627526177635 200 202 197 1.3246857337697451 1 828 3 653
441 2.032368356247515 0.18058847831046454 7.9007122044572533 164 165 157 0.15383254785500333 1 544 3 626
440 -2.2223837937985964 1.2340763255495422 9.1242631657299995 150 158 163 0.92228184080330422 1 834 3 602 2 662
439 0.045237942541430876 0.51052533957353396 7.7733097437911995 145 146 145 0.071696277275377723 1 680 3 596
438 -1.8632880423813716 1.0636845004072191 9.4324547675483608 46 46 38 1.3908925778483137 1 777 3 548
437 -1.8823380896484629 0.94300511969837331 9.4713866900865256 129 128 126 0.3985300194602065 1 741 3 511
436 -2.5276388122714479 1.1986495201215797 10.400566200553449 101 103 102 0.25583555125519486 1 770 3 510
435 -2.1983424215799463 0.92418978103525751 9.4986684822281653 138 138 136 1.2714723756550643 1 738 3 487 2 516
434 -1.8975363218292973 0.75889030929885126 9.5944588962461808 165 175 177 0.62100651422512543 1 695 3 448
433 -0.66289271403014216 0.18527725790228622 7.9043813566369501 48 48 56 0.16496434007219257 1 590 3 415
432 -1.8062311582177035 0.049374271393310853 10.210458674190125 154 168 184 0.44404041132166927 1 503 3 251
431 -0.5567024154377056 -0.46237447247410746 8.2202546191385544 164 163 161 1.3086739853986507 1 415 3 225 2 89
430 0.78067303229633822 -0.97335050317113359 8.643927344798751 133 132 127 0.68935474189737511 1 278 3 198
429 -1.5862262888027656 2.1667200984140371 8.0007724684996404 135 140 127 2.7143641536662497 2 1136 3 1201 1 1125 2 1114 3 1177
428 -0.016758000832253206 0.34135176355233177 7.9104150446821029 65 67 59 2.2211391019573723 2 272 3 525 1 625 2 263 3 522
427 0.083545909374594718 1.0664851456270104 6.3374608078530725 115 119 110 2.1620263021773174 2 644 3 967 1 939 2 635 3 969
426 -1.6964627329380226 2.9789144163186236 7.4638756149751559 113 115 110 0.65608086282176936 2 1763 3 1882
425 -1.8797915014537359 2.9549739400682276 7.4177589503983148 85 87 82 0.82717112228563505 2 1762 3 1876
424 1.14868944873936 2.234676822203439 5.6480016590541027 161 163 157 1.0624655626616264 2 1755 3 2006
423 0.51299860545433074 2.2234894428909255 5.6333958023261008 109 114 108 0.66670156976025097 2 1750 3 2003
422 -0.52284270549054668 2.1427543552372224 5.4947229351796478 131 139 128 0.77489381560297388 2 1737 3 1991
421 -1.8727159404204523 2.8984262959379929 7.4476587965480405 87 88 80 0.82347897991126551 2 1715 3 1831
420 -2.0009453070220129 2.9000625347017523 7.4837664477256611 101 102 94 0.095020311200075286 2 1704 3 1820
419 -1.4828871187426567 2.8943042005141582 7.4534433542336158 116 118 108 0.63049967838493459 2 1697 3 1836
418 -1.6184497067176906 2.8673105141528552 7.4188576472102277 111 113 102 0.20374143412019485 2 1693 3 1828
417 0.38068912533033705 2.1755561814241462 5.6631002314382508 155 156 150 0.13171615735843883 2 1690 3 1956
416 1.8577696439717393 2.1224081753980792 5.5773488460592962 121 125 118 1.047095468120393 2 1679 3 1947
415 1.8118635768907216 2.1422587766598613 5.6311385854743374 116 119 110 0.38157020681659792 2 1673 3 1946
414 0.75591903718095343 2.4991621539111306 6.4980411895585677 50 45 35 1.752963493424875 2 1672 3 1914
413 1.0784040421715981 2.2438532787160228 5.8783880296215774 120 118 106 1.3281779025161098 2 1668 3 1939
412 -0.55885536065338548 2.1161617148494987 5.6135065509347708 146 153 146 1.686755661149355 2 1666 3 1910
411 -2.5434693969574731 3.0963392140729242 8.1496646414934801 102 107 100 0.3613823225117313 2 1665 3 1756
410 1.2860958445732993 2.1537629443843809 5.6872456681849393 137 142 135 0.63861831655351553 2 1658 3 1931
409 1.1455872257177733 2.1564944153258025 5.6922583673164278 131 134 125 0.54497781974991877 2 1657 3 1930
408 1.0055657713086648 2.4776312101804581 6.5280195769937484 60 50 41 2.2691565633213435 2 1655 3 1856
407 -1.8773405331125712 2.8375622917261669 7.4881934167857924 93 96 87 0.51615406219932747 2 1651 3 1787
406 0.78921552645374904 2.456686444161245 6.4500232834381812 23 19 11 1.4034433105833908 2 1647 3 1900
405 -1.7825597557097865 2.8473161697627365 7.5135049429318093 73 81 68 0.21412253282618565 2 1645 3 1794
404 -2.0073349489837988 2.8249577006603568 7.4712806846869189 118 119 111 0.10006325830124399 2 1644 3 1777
403 0.38391664391945657 2.1451182653487537 5.7015953326281217 140 143 134 1.3624364553373647 2 1639 3 1913
402 -1.5223243245101643 2.8547388539319387 7.5750668242582853 95 95 88 0.15873926365983199 2 1636 3 1778
401 -0.17025907543392194 2.1516764449116548 5.7463878016896972 107 112 106 0.96827263200353419 2 1633 3 1893
400 -1.6421466675271508 2.8224652972066355 7.5783991759520246 141 138 129 0.25669823281671783 2 1616 3 1768
399 -2.549596873138833 3.057522041713125 8.2419785669695678 107 112 105 0.61403326016490056 2 1614 3 1704
398 -2.6335818018421877 3.0373873164334304 8.1891833575064155 75 81 77 0.36797034736070489 2 1613 3 1703
397 -1.8696220254385612 2.7858109450614474 7.5184272637754992 87 87 79 0.40326639764430683 2 1606 3 1753
396 -2.0173325509517492 2.7682885434469418 7.4870207351251592 121 122 115 0.91209442866783641 2 1605 3 1741
395 2.0606670067045867 2.0941706118019567 5.6560627749203638 148 149 143 0.63220452428726714 2 1603 3 1916
394 -1.9529390234614448 2.7756576708150389 7.5071935468439248 121 123 113 0.12255693359866751 2 1601 3 1746
393 1.8377691362274153 2.1406778026293329 5.8107338801301402 96 99 92 0.22775904746737352 2 1597 3 1887
392 1.8662341976810941 2.0865887249831108 5.7140702165392891 119 120 112 0.12496138434007056 2 1589 3 1879
391 -0.55411212609045668 2.0564578205409587 5.6455909724738165 157 162 155 0.23389488633650563 2 1588 3 1845
390 -2.5630775311146383 2.991197934278726 8.2383515822625988 95 100 94 0.32325495168108065 2 1586 3 1659
389 1.9539463048232477 2.0783773993788168 5.6990975520788147 88 88 86 0.64278366896125205 2 1585 3 1888
388 -2.6284501945495657 2.983979982648318 8.2256530833473462 78 83 77 0.47817434245846163 2 1581 3 1658
387 -2.7070676938339862 2.9715169187418171 8.2125109700851358 105 110 106 0.3935177408075356 2 1580 3 1652
386 1.0908214701511101 2.1457295906800078 5.8723797861196303 44 47 40 1.3301449493018829 2 1573 3 1868
385 -0.44804297854231967 2.0540541934542049 5.652246741754464 159 164 157 0.24803721590114533 2 1571 3 1846
384 -1.7735573269051161 2.7438319698471387 7.5662767488034133 99 99 89 0.17456926963752273 2 1570 3 1721
383 -1.9610177551947297 2.7181957081961583 7.5312126912782453 125 126 118 0.4224419932112482 2 1563 3 1696
382 -1.8695176647785747 2.7217063755477575 7.551743393377425 98 99 91 0.30757530718930204 2 1561 3 1697
381 0.518668472822291 2.0883346592101848 5.7769120688762321 130 135 128 1.855868382367845 2 1559 3 1834
380 2.0313628650201263 2.0404161253232251 5.6839941580653957 149 157 146 0.15800502337530128 2 1545 3 1854
379 -0.28897517302379261 2.045184800674809 5.7203215189247114 80 85 79 0.40063237778427396 2 1540 3 1814
378 -2.625227134073282 2.9250771366064248 8.2547071083257784 82 87 81 0.078710461439162743 2 1539 3 1598
377 -1.5303320785370178 2.7227391510567251 7.65728704978984 114 114 106 0.52339833526496526 2 1536 3 1678
376 -1.6441498186963148 2.7222974244116722 7.6597160077058941 99 104 90 0.55324727105033455 2 1535 3 1675
375 -1.7778339093829953 2.6937070634500655 7.6223798839935428 96 97 88 0.42959648933784822 2 1528 3 1665
374 -1.5827839486351538 2.7004667693158666 7.6409278241996583 26 28 25 1.0628584986153178 2 1527 3 1674
373 -1.8612851132812005 2.670048864416775 7.5822288635345387 92 93 85 0.1151992058381873 2 1526 3 1654
372 -1.9505374527124189 2.6593196080800485 7.5793336043757691 123 124 115 0.23649232644212187 2 1523 3 1646
371 -0.55713945529033748 2.0001311863749591 5.6859223497830271 155 160 154 0.51585681919032744 2 1515 3 1798
370 -2.4906515199369674 2.8604335995760195 8.2603296721868418 119 121 116 0.16132576265441639 2 1511 3 1565
369 -2.6211283093978368 2.8659344979919821 8.2943404554585474 79 84 78 0.2323665799885371 2 1508 3 1556
368 -2.721303377551993 2.8504246144439565 8.2546944388071601 105 111 101 0.22078990465126158 2 1507 3 1549
367 1.9582057273118578 2.0066739983229875 5.7484498562534743 90 92 81 0.041108837086398037 2 1498 3 1825
366 -1.7784498781055793 2.6378918543191361 7.6487726678714356 102 104 93 0.3908961956871303 2 1496 3 1612
365 2.0304404498446642 1.9842158795478357 5.7110929761027123 156 160 150 0.42756026789418561 2 1485 3 1815
364 0.65736900155616373 2.3187096870244313 6.6881544829674198 34 34 22 0.56884042917345856 2 1483 3 1749
363 0.34303352500232842 2.0262810087119387 5.8262715576548594 142 143 136 0.88583407693033545 2 1482 3 1790
362 -1.997061289259038 2.6147829067655435 7.6266586243855912 124 126 115 0.35328958564697965 2 1481 3 1590
361 1.756909954883989 2.2744332757933319 6.6603721163052256 35 36 31 0.97565886442204164 2 1462 3 1766
360 -1.5276252084553879 2.6049695149879506 7.7204472099839041 108 105 100 0.31763395004301387 2 1461 3 1575
359 -1.6398327384382401 2.6007910844532511 7.7294322184353978 82 86 73 0.20938746174757467 2 1457 3 1567
358 -1.7813646351804393 2.5803424268028947 7.6908785856463728 103 105 92 0.13272999121304568 2 1453 3 1561
357 -0.45879311517572985 1.9444469839383005 5.7146684245712294 141 148 139 0.21351087470126989 2 1448 3 1764
356 -0.55133011713303159 1.9443422671267636 5.7182491775923623 148 153 146 0.13175043031880318 2 1447 3 1755
355 -1.8665217618709611 2.5657495128269669 7.6628604997548333 91 93 81 0.2099814580825764 2 1446 3 1557
354 -1.9585044563915139 2.5570663735233947 7.6501334563143368 124 126 113 0.3142758648747016 2 1445 3 1545
353 -2.0942926382463778 2.5465929531134659 7.633859394482946 129 132 125 0.69897292443064329 2 1441 3 1541
352 1.7357263927960487 2.2525388011777041 6.681645958585829 16 17 11 0.85094358109501456 2 1439 3 1743
351 0.97188338222528081 2.2497944565556129 6.6764238791690884 34 35 29 0.00040949538676583947 2 1437 3 1728
350 0.940605838857 2.2532290492298959 6.6848508531452699 22 25 16 0.16634986161693086 2 1436 3 1727
349 1.9591546903316539 1.9535336841741968 5.7845311893903126 103 104 96 0.25168717970267918 2 1434 3 1791
348 0.71178571588684392 2.2521222693604086 6.7071639102916452 26 27 19 0.53270009153389908 2 1433 3 1711
347 -2.6227298057052009 2.761811668735576 8.3677581787212159 85 92 85 0.25304035286264187 2 1432 3 1456
346 2.0495283187775462 1.9279796635841639 5.7604038572435048 158 162 153 0.56229219759605009 2 1405 3 1774
345 -1.865226366909581 2.5062734390056787 7.695932716038338 96 98 85 0.22661770661683778 2 1382 3 1498
344 -2.4904483763340552 2.7052371651332709 8.3843001399699197 125 126 118 1.0394023020509753 2 1381 3 1415
343 -1.948412754648579 2.4946254076878276 7.6650214213615175 129 131 119 1.1130727621441903 2 1377 3 1497
342 -2.6197466491169026 2.700846617364058 8.3993025085008988 93 94 88 0.055711885880468867 2 1374 3 1406
341 -0.60838556655037501 1.8990777026161125 5.7505431359328085 112 106 102 0.38078077043752034 2 1372 3 1709
340 -2.6994833526716091 2.690862578480961 8.3816564797857058 112 114 107 0.47249961060936829 2 1371 3 1401
339 -0.45745026563171565 1.8879862608911882 5.7509094997011658 137 140 129 0.15928515711108884 2 1362 3 1701
338 -0.5538177399437354 1.8867547041499402 5.7504435493097112 149 154 147 0.12434052206745519 2 1361 3 1693
337 -1.78033347659931 2.4765796609426602 7.765784060055867 100 100 88 0.11977539888333431 2 1347 3 1468
336 -1.8629216098025934 2.4550178636127971 7.7286583643025599 100 100 90 0.18358294133260822 2 1341 3 1453
335 -2.4754951083559638 2.640699238693438 8.3949366467212485 127 128 122 0.077163012697911024 2 1333 3 1378
334 -2.6156965575968245 2.6457058654267351 8.4289542932826365 94 95 90 0.37328515145812757 2 1332 3 1371
333 -1.7737489628297289 2.4163827259998021 7.790551707282531 107 107 97 0.58786904215083979 2 1298 3 1417 1 1238
331 -2.6148248682536863 2.5936473241700737 8.4779433220905815 92 94 81 0.053716984238503393 2 1294 3 1317
330 -2.722372869813098 2.5769985062664551 8.4645975075267632 118 120 112 1.3609615804170989 2 1292 3 1304 1 1220
329 -0.4595345420041772 1.8336886245569806 5.7820531592549518 140 146 137 0.60560716095340072 2 1285 3 1650 1 1239
328 -0.55830848692729051 1.8313342282478227 5.7787037605508278 155 165 156 0.33545299397904971 2 1284 3 1638
327 -0.1836643489088623 1.8682514170790174 5.960549418320289 26 29 22 0.1078093778936515 2 1273 3 1624
326 1.9270936658130919 1.7992868464535234 5.7452988299815138 53 54 47 1.4352582282702984 2 1271 3 1712
325 1.8623958222599568 1.8168596705387396 5.8292512324778691 120 125 112 0.014499268859727904 2 1261 3 1702
324 1.8458049458011301 1.8787775907280579 6.0329583090360854 94 94 84 1.7871203652352086 2 1260 3 1694
323 -1.7785848264446205 2.3565950223376326 7.8267950492972975 110 110 99 0.60552236624382172 2 1259 3 1374
322 -1.8663321320541497 2.3432648321683147 7.7972335016096155 101 102 91 0.045195460693631215 2 1258 3 1367
321 -1.9915802615132208 2.3360286681884448 7.790133908455795 134 135 127 0.37150680711470746 2 1254 3 1351
320 0.32896037458267813 1.8419109929129955 5.9387508554010164 55 54 49 0.30547897278279845 2 1251 3 1634
319 0.51305629115319507 1.8307923192816111 5.9150108955232152 79 80 72 0.036269355150156495 2 1250 3 1640
318 1.8461473651510176 1.8851669932323047 6.1280479654140496 100 100 90 1.2268544546485367 2 1243 3 1671
317 0.39515662614520997 1.8169811345338969 5.8873355493929846 110 112 99 0.50317570415804735 2 1241 3 1627
316 0.45651002149621078 1.8181834832816828 5.9042717556160884 15 17 8 0.34586885169241305 2 1239 3 1628 1 1184
315 -2.6171760169871163 2.4963601889913751 8.5324100353722123 97 98 90 0.60050357884238892 2 1238 3 1214
314 1.0707270504626729 1.8693756995736885 6.1114411552137682 53 53 41 0.28590888913090706 2 1237 3 1629
313 -0.45941389257956877 1.7777588861996789 5.816887906696965 150 152 141 0.18517263846720683 2 1226 3 1579
312 -0.54847618839373613 1.7813165138984097 5.8238008506033774 144 148 141 0.53372885874868081 2 1225 3 1578
311 -1.7183359887523695 2.307933188410086 7.8883896253621408 129 131 120 0.32680751673530267 2 1219 3 1324 1 1177
310 -1.7777126898452336 2.298231589860519 7.8619836537013077 101 101 91 0.35614751967962882 2 1218 3 1319 1 1176
309 -1.8661485109462497 2.2799181831855693 7.8307480251602328 104 104 94 0.75417020560082138 2 1216 3 1305 1 1172
308 -2.479527855881638 2.4734351696457546 8.5327629906941436 130 131 123 1.5435960283024239 2 1215 3 1217
307 2.0283462157514265 1.7643460279262917 5.8511309626751729 153 160 149 1.5228682166787093 2 1206 3 1669 1 1133
306 0.31610511335628733 1.7903956005648185 5.9671166215485902 127 128 120 0.7918829295832327 2 1202 3 1572 1 1166
305 1.907739441852851 1.7761224393102517 5.9138295156313072 108 111 100 0.63411284454644234 2 1199 3 1657
304 1.0743028326221729 1.8090441295512472 6.039166222296223 69 71 61 0.19261823008085568 2 1197 3 1608 1 1147
303 -2.6123502241863767 2.4243475045412541 8.5798643949322333 94 95 87 1.2601037762473268 2 1190 3 1159 1 1152
302 1.1452087778611872 1.7609441953452163 5.9272913740704656 145 147 136 0.15660854348125805 2 1180 3 1609
301 -0.1623304153568037 1.7687031829698108 5.9690203351819848 114 117 108 0.85715295184334195 2 1178 3 1535 1 1173
300 -1.8657070252292791 2.2287485201362323 7.8536864190549416 107 107 95 0.64830250060948991 2 1177 3 1250 1 1156
299 0.38037584753167542 1.7551206666992039 5.923405614701327 112 115 108 0.20868878999351012 2 1174 3 1568
298 -1.9417218244247216 2.2210185854388942 7.8605355798699792 138 140 127 0.023938681889337808 2 1173 3 1236
297 0.53649184258792681 1.7554569299437903 5.9254969761118339 140 142 136 1.7694838092390306 2 1168 3 1573 1 1153 1 1157
296 -1.5836497715675113 2.245524814361227 7.956342373329341 26 28 17 0.62507976087569128 2 1167 3 1266
295 -0.23230014326827342 1.7483429022167432 5.9278371618738959 92 93 85 0.59205184721251458 2 1163 3 1534 1 1170
294 -0.35235783539130638 1.7265928122348613 5.860186722441556 138 146 133 0.58207039585542031 2 1162 3 1531 1 1169
293 -0.45484013746575891 1.7220980855191057 5.8463164019833407 134 142 129 0.62739744968632638 2 1160 3 1530
292 -1.6129908657543122 2.2366467396936507 7.9574979690737226 106 103 88 1.3257042014872986 2 1158 3 1257
291 -0.5541242391984833 1.7169829716583027 5.8452800333907522 144 158 145 0.64370119387129177 2 1155 3 1515
290 2.0305842565701822 1.7377781734110527 5.9212895759750488 115 117 103 2.3021702040041809 2 1152 3 1651
289 -1.5891695606618508 2.2182695698742969 7.9620589572408971 114 111 96 0.73576780070859105 2 1149 3 1241 1 1135
288 -1.7718688100225153 2.197655869569612 7.9180722620105684 107 107 95 0.32835973330170926 2 1146 3 1215 1 1140
287 -1.8634445078278807 2.1704763996554597 7.891594036076345 111 115 101 0.73505667190888024 2 1140 3 1191 1 1139
286 2.0559538485201836 1.7016968358630453 5.8904068630011919 159 166 158 0.60878954428784826 2 1139 3 1623
284 1.8578287054665785 1.7577205924129671 6.1676332256444519 76 76 64 1.5348098733589821 2 1129 3 1580
283 0.31927580409433443 1.72122886914882 6.0269354744886225 68 67 63 1.040525097607867 2 1126 3 1516
282 -1.7757426357715782 2.1394484079118179 7.9579445716452293 116 114 101 0.34561287365839805 2 1121 3 1160
281 -2.6118358943329927 2.2957103627286735 8.656618425314786 102 103 96 0.21338225909859346 2 1120 3 1067 1 1122
279 -0.54618473420244729 1.668168860428676 5.8880501473873252 145 152 144 0.4912872695626106 2 1110 3 1461
278 -0.4559247807538036 1.6618035662382589 5.8824212859746083 142 145 136 0.060338845239379199 2 1106 3 1462
277 1.9749203357667269 1.6673349770796415 5.9287532111071659 151 156 150 0.48848348810968278 2 1105 3 1574
276 0.52289218226902223 1.6705322720234639 5.9886863278692424 141 143 134 0.51535716380440766 2 1094 3 1492 1 1118
275 2.0431955749903885 1.6515895641128289 5.9300031484475912 164 166 155 0.027158426960372364 2 1085 3 1570
274 1.8688418039717738 1.6861255525767016 6.0701369177156046 147 145 132 0.88860944067505299 2 1083 3 1558
273 0.39901837057073086 1.6698125252844327 5.993059163567338 129 131 119 1.0620992910774512 2 1080 3 1488 1 1123
272 -1.5777253726299105 2.1014455802100356 8.0198613789648387 139 141 130 0.32851630974235757 2 1079 3 1144
271 -1.6561007293828194 2.0905113908608493 8.0189598772811301 132 135 124 0.15451684940734248 2 1077 3 1132
270 -1.7694907026920823 2.0803618615548931 7.9844787016735781 107 107 95 0.39516423529262035 2 1076 3 1120 1 1102
269 -1.8562212493298216 2.0669502887904772 7.9622082010451276 103 104 90 0.066348226289268911 2 1072 3 1113
268 -2.0211476152318126 2.0406499739354036 7.9026565071894863 140 141 132 0.14302397738156708 2 1064 3 1095
267 1.847427328917588 1.6983772147154195 6.253684796821311 66 64 49 0.26229732655304999 2 1063 3 1510
266 1.9268761225349231 1.6394481567557986 6.0201620760911663 157 159 148 0.10711492957583482 2 1060 3 1537
265 -0.54794873467124949 1.6080902260510894 5.912412813411887 141 153 141 0.79814290659495124 2 1052 3 1403
264 -2.609407054843734 2.1642532877034841 8.7516513185166254 122 123 113 0.5277031167906453 2 1047 3 993 1 1089
263 -1.7729081889378182 2.019878315747698 8.0226893310894205 121 121 111 0.33714337980704168 2 1040 3 1081
262 2.0236320687819678 1.5986768346351654 5.9467304932684302 151 154 138 0.69996930438858396 2 1038 3 1532 1 1080
261 0.38095911531117999 1.6185392929709481 6.0192554315176814 132 133 120 0.12897088706987148 2 1034 3 1443
260 -0.35510300524621674 1.5953705936436482 5.9315434381816523 146 147 139 0.45053337259823523 2 1026 3 1397 1 1117
259 -0.45156693533627701 1.5846187503752505 5.9236525925663805 138 140 129 0.43740437986270125 2 1022 3 1383 1 1114
258 -0.23930623869872725 1.5989193206946719 6.0207863708669818 142 149 141 0.79770980196434993 2 1018 3 1380
127 0.52566839711710633 0.59385029335219508 7.6528954532492364 28 28 25 0.40717970575816059 2 358 3 681 1 700
126 -1.7149701442505592 0.43886687612900976 10.018512996987674 77 70 60 0.55102136024384807 2 357 3 358 1 593
125 -0.051759101129564389 0.56412492603259601 7.8166980810439712 93 99 90 1.6226192478863799 2 356 3 598 1 697
124 0.42485987121008684 0.57253344325586419 7.7391996729931796 97 98 90 0.83605211307082605 2 354 3 662 1 688
123 0.96378688488172948 0.55370147596286401 7.7189055472205927 143 144 130 0.45527195333432785 2 344 3 704
122 0.93683727303134079 0.54460903919352988 7.8261615094024295 75 75 63 0.95492498959667582 2 341 3 692 1 668
121 0.23175525905823502 0.52584718758097071 7.8693011606235794 117 119 108 1.2714863769607239 2 340 3 606
120 -2.0047097841758035 0.35574835677223005 10.222434429731099 65 75 68 1.3090468581281611 2 338 3 320 1 566
119 -0.30578894727756767 0.52662443227879396 7.6045880927806984 122 128 124 0.067537603562682319 2 333 3 586
118 2.2863014615184838 0.51803240202789747 7.5898360456325626 97 119 107 0.83697100102670419 2 331 3 801 1 645
117 1.4592386587577901 0.49943424419269189 7.8811103887546308 131 134 124 0.35763466733722915 2 330 3 715
116 1.0755461281228884 0.5109825149153675 7.6789087586228542 124 127 117 0.70094670338730314 2 327 3 698 1 665
115 0.92348830515927594 0.48819817650621256 7.8578041887244172 37 40 31 0.65967182427570215 2 326 3 660
114 0.62405067761704691 0.50494476603678617 7.6642174532542402 115 117 106 0.96664866715205455 2 322 3 650 1 675
113 0.41235558378779791 0.49732137269804427 7.7859241179891896 114 115 107 1.7839939238563023 2 320 3 617 1 674
112 1.9383133291128547 0.49560345916863524 7.6900032144209991 136 138 125 1.6248456176331618 2 318 3 759 1 650
111 -0.045977945490774275 0.46608980561795377 7.8750037563591047 99 102 89 1.5780197241236142 2 317 3 562
110 -0.30708362183696458 0.49081799925951108 7.6133322279265316 115 120 116 1.2283334276430278 2 316 3 560
109 0.2231528586455398 0.46628119153561376 7.8326085692231278 80 81 72 0.23911635216931115 2 313 1 660
108 1.3889705101424972 0.45965345878967789 7.874312071259653 73 79 67 0.86212985981274171 2 311 3 689 1 633
107 -0.22893330788267741 0.47565347707967082 7.6682748949905148 103 109 99 1.7092248667713965 2 304 3 561 1 687
106 0.49359707511999718 0.45241920823083637 7.699725096484678 132 134 123 0.39726515980288485 2 302 3 618 1 656
105 2.1490142115423856 0.43576607223776909 7.7191884294534425 59 62 55 0.25499980195255273 2 300 3 755 1 614
104 -0.65327676493949305 0.45319497353475535 7.6682461679371556 118 147 135 2.2987557692068767 2 299 3 521 1 684
103 1.7578794079346984 0.40263513056342537 7.9002166522363373 86 88 77 1.8081069683346769 2 296 3 700 1 604 2 286
102 0.96482329295301383 0.40942418448797646 7.8144437217132676 88 88 76 0.921048363295081 2 291 3 625 1 631
101 0.28054811390489531 0.40375440859737022 7.8773279760342092 114 116 105 0.979848910340956 2 284 3 579
100 -0.22245174824165614 0.37753446410211255 7.80605473270142 121 124 117 1.2259809110005042 2 279 3 519 1 648
99 -0.44832596997763852 0.39959783855079056 7.6888908391988959 92 93 87 0.50645564661595355 2 278 3 518 1 663
98 1.2099182650679503 0.37585799012120263 7.7478380909479041 87 89 82 1.0700926912154571 2 276 3 639
97 1.6653958805256366 0.34356358237324064 7.9668467479461098 42 43 38 0.42644651757474383 2 274 3 661
95 -1.6029010183325996 0.11562613335802996 9.9902198165608951 111 124 114 1.5808487599839596 2 271 3 285 1 526
94 1.5482181894628937 0.34825451681144054 7.9434504672291339 72 74 63 0.82380183919295791 2 269 3 655 1 594
93 0.8588373167292831 0.35159059337951287 7.8597073256695094 39 40 32 0.23528698078995008 2 268 3 601
92 0.64915313690654397 0.34004086874398654 7.771210482426981 146 148 136 1.6056740722555196 2 267 3 587 1 612
91 0.15515161715705661 0.32481779503821939 7.9894134879129934 41 42 34 1.1890678892136102 2 265 3 528 1 616
90 0.030681436856162314 0.32782592426606205 7.9015451471378162 40 41 33 0.78631887733043104 2 264 3 523 1 619
88 2.0378516913345459 0.33080542659078011 7.7695867339997253 160 160 148 0.56358722176703668 2 260 3 701 1 582
87 2.2664909251157495 0.33333044749309604 7.7465916169145732 97 127 109 1.6232411759361118 2 258 3 720 1 586
86 1.0256625862810194 0.31701719671445922 7.806140457353183 128 131 121 0.55781029449683939 2 257 3 605 1 600
85 -0.5632296764574225 0.33064504324534577 7.7302848881190878 134 134 122 0.1759066682324758 2 254 3 479
84 -0.59260517455810668 0.33054169774871917 7.7416187332587114 142 144 131 0.35376609125094038 2 253 3 477
83 -0.11097913851583008 0.30309557855766084 7.9170160685876478 109 117 106 0.5539879113070818 2 251 3 505 1 615
82 1.9226488905525296 0.25135338025684734 7.9625868960606416 128 130 119 1.0854306099620505 2 245 3 640 1 555
81 -1.6300346234163323 -0.016344445402372565 10.136652292812508 105 131 120 1.2067069183101691 2 244 3 249 1 478
80 0.59992887655929383 0.27142929126082305 7.8009509821285707 146 147 141 0.52982030092885912 2 243 3 549 1 599
78 0.76907575798910255 0.25989791477429114 7.8200347039658773 107 113 105 1.4001256584899666 2 241 3 566 1 583 2 240
77 0.49087277766608173 0.26451013619008007 7.8272301841753062 112 114 101 0.6310579959434961 2 239 3 543
76 0.89922921872157913 0.24202576928735037 7.8766140952992894 143 144 136 1.5158101442562255 2 236 3 567 1 578
75 2.1470236487243062 0.24814574228940245 7.8272987109455254 112 109 100 0.44291821331599496 2 233 3 670 1 556
74 0.42863793694508878 0.22890536862068972 7.9777341761613565 118 119 111 0.37869149413457759 2 232 3 524 1 581
73 -0.21244095399312024 0.2176453749827697 7.9294662248130852 77 80 73 0.70148712003967539 2 229 3 463 1 588
72 -0.4468195175557923 0.21262485784252461 7.8037349593486471 96 97 91 0.51518586231036001 2 221 3 445 1 603
71 2.2548509282599127 0.17269997531290138 7.8482741092194592 122 123 115 0.55093031134045678 2 215 3 651 1 540
70 0.49766923303024191 0.17278391719919439 7.8785909417557161 134 135 126 0.74365070742733153 2 213 3 513 1 569
69 1.9252589038683601 0.12569275303166183 8.0413298776087494 73 77 63 0.27857841221805596 2 205 3 599 1 534
68 1.2776285249546433 0.13331667810941927 7.895881249043283 69 71 60 0.70721254508503817 2 203 3 553
67 0.41919143535819048 0.11500230835116754 8.017035331780848 53 54 46 0.32741160447209494 2 201 3 482
66 0.26524450352654094 0.10910843151306038 8.0304765249208394 29 30 24 0.30983265619812661 2 200 3 464
65 -1.4785985575492844 -0.22879055877579857 10.342989900823438 124 125 114 0.30349136683602507 2 199 3 212
64 -0.20918658880859664 0.10629988456800243 7.9670822232917846 63 64 58 1.3622393253126344 2 193 3 428 1 554 1 568
63 -0.67722032108736108 0.094389902661529246 7.9666148954173144 152 152 142 0.99390108505179864 2 192 3 377 1 567
62 2.2678935048253379 0.06654129084884064 7.9130034294543883 57 60 49 1.0895108942497338 2 189 3 608 1 499
61 1.2676324946770769 0.07392628755700803 7.9252412108474681 74 75 69 0.6860919345915758 2 188 3 537 1 536
60 2.0381702277932616 0.061067125898010555 7.908046890294596 83 84 70 0.71733515160161732 2 184 3 594 1 507
29 2.154626095119565 -0.28406594844829136 8.1729270671052596 97 97 87 0.4302461231558023 2 115 3 495 1 409
28 -0.2951627853585097 -0.30469551053950983 8.1766837675012827 106 106 98 0.79264049569671791 2 114 3 290 1 447
27 -0.57894836331113297 -0.30287910557422115 8.1861585759598618 148 152 138 0.80844225355404853 2 113 3 266
26 -0.43988681331627322 -0.32561411356367809 8.1639143783029429 92 96 82 0.17462967234034218 2 111 3 271 1 443
25 1.9438359115819326 -0.3725491450328573 8.2981452882642621 168 165 156 0.95538538025201014 2 108 3 447 1 391
24 0.77367540677740987 -0.40629460709533327 8.3644837774896743 79 80 75 1.176082361492184 2 106 3 347 1 401
23 0.49095507291399709 -0.4495798024670743 8.4172238511865736 141 141 129 1.129490354943435 2 101 3 311 1 399
22 -0.22913378421228425 -0.41197972575004083 8.2967203875582953 132 134 129 1.081416544630186 2 99 3 260 1 425
21 2.2468606450128021 -0.40645656910828687 8.2089170611980897 88 98 89 1.8292661038124003 2 98 3 457 1 378
20 -0.31904479513400341 -0.4335365621502949 8.1799883746835569 100 102 89 0.87232088264676833 2 92 3 254 1 418
19 2.0156839790270489 -0.5299079656794714 8.5881919926891754 173 172 167 1.8364050989328298 2 91 3 411
18 2.0218493812154703 -0.56527851433678711 8.5789523579988884 207 207 202 1.0462290571640538 2 88 3 397
17 1.2174638589926818 -0.56312850877410958 8.4343918353398522 90 93 83 1.2474091390013773 2 87 3 338 1 351
16 0.85404125636170214 -0.58262618062306459 8.4747140179944758 131 134 123 1.2131489112595768 2 85 3 306 1 354
15 1.1359087825095919 -0.60417957214524298 8.4302450596215994 41 42 34 0.59506972843929051 2 79 3 326
14 2.2436604926575985 -0.61994114679962808 8.4385045907376437 183 190 183 0.44464139299846595 2 78 3 401
1 0.74680453395840196 -1.1217283942389129 8.6856755019207164 144 145 137 1.3104309863859096 2 38 3 169
2 0.47936957477071962 -1.0046050495294949 8.6124890740464188 121 126 117 0.71252817735514884 2 43 3 174
3 1.248227644591994 -0.99019364943898558 8.6124783713642152 121 121 121 0.46592793319984216 2 45 3 235
4 0.71318424856309148 -0.84923772778710949 8.5480186192405583 94 97 86 1.8042735341320124 2 60 3 228 1 295
5 2.1856656352062984 -0.84349684305190831 8.7431856843024427 227 231 222 1.0656176442504843 2 64 3 339
6 0.98261805393236701 -0.7979032676175466 8.5773284635740943 125 126 112 0.090338307544749502 2 65 3 261
7 -0.40313340906313 -0.759110236965723 8.6125012215858519 185 186 180 0.29205908105575595 2 67 3 154
8 0.49229479173211033 -0.6739570098660852 8.4334598198084425 101 101 88 0.72120451538041674 2 69 3 257 1 342
9 0.67968562077203609 -0.67141275210683493 8.4474205201854851 120 121 116 0.43108936218363042 2 71 3 272 1 338
10 0.86489797290490067 -0.68968522294983581 8.4907312538827373 149 148 144 0.77931353165130757 2 72 3 281 1 326
11 1.0473460845068745 -0.66803345367283051 8.4220365427901847 133 136 126 0.51901334864198978 2 73 3 303 1 331
12 1.2379757467234556 -0.67401534258424722 8.4463901648689337 103 107 93 1.1181061569001578 2 75 3 312 1 324
30 2.0193836042983886 -0.26939079897007567 8.2115776083860652 116 117 104 0.19339312176563792 2 117 3 483 1 416
31 -0.44199702477789371 -0.18288717373254182 8.0632478724098942 64 65 60 0.7206982918628958 2 121 3 314 1 483
32 0.47842951792044142 -0.18050594443829926 8.1102844955434357 84 84 74 0.40667503120755938 2 124 3 392 1 464
33 0.67278662752855523 -0.18299880818754521 8.1327313537919892 98 99 93 0.67278434369491402 2 126 3 409 1 457
34 1.0389881618505421 -0.1767317196758712 8.1092835270657524 128 130 117 0.13418466028160853 2 127 3 437 1 454
35 1.2356720842029434 -0.17202631519835498 8.1140863112466874 88 90 79 0.31310127475032296 2 129 3 452 1 451
36 -0.2332672504254345 -0.17777862180216386 8.1961706090386635 109 111 98 1.6698815227765893 2 131 3 335 1 471
37 2.1479574088056088 -0.14711503007710336 8.0865352799147878 62 66 65 0.096167406258988244 2 133 3 530 1 442
38 -0.54432678118081768 -0.094671470916920297 7.961165624405476 142 145 133 0.17080092787088169 2 136 3 331
39 -0.44189924699975291 -0.0912868754668692 7.9565527026603009 130 133 126 0.44999162211102844 2 137 3 343 1 516
40 2.0176406296776248 -0.12696835215855606 8.1299786286427747 109 113 99 0.15406216265757153 2 139 3 526
41 0.79521678969784793 -0.10888420648075092 8.0925638506474034 130 131 124 1.2876822980813443 2 142 3 441 1 475
42 -1.2159599659267839 -0.49662495092392978 10.255359441540287 145 149 134 0.52522110272055078 2 144 3 168
43 0.35399946421224771 -0.123387336324706 8.1967902223709039 119 120 114 0.85873162690154115 2 145 3 394
44 0.47231741749483813 -0.06659848376143751 8.0297998190839799 145 148 141 1.7741659699871535 2 150 3 431 1 496
45 0.67201377271900187 -0.075934224582978604 8.0826802197575844 121 122 116 0.76799356323708379 2 151 3 440 1 490
46 1.0303878685998975 -0.066145236154073306 8.0486196011829279 148 151 143 0.45812030885312782 2 154 3 473
47 2.2382832237077315 -0.058806283077367016 7.9801960000671457 136 137 132 2.0512806873703822 2 158 3 568 1 461
48 1.3177939394939333 -0.061359409877557725 8.055901135238873 130 131 126 0.13799362889532679 2 159 3 500
49 1.7048726215569912 -0.073093245762722803 8.2317053877058513 147 150 139 0.53241056783681628 2 164 3 515 1 465
50 -0.55163985821892036 0.023466022921649898 7.8818986484777165 92 95 88 0.52001741991567485 2 170 3 370 1 550
51 -0.3282938760992764 0.027214421108711861 7.8925675422050254 80 81 75 0.29035588576426091 2 173 3 391 1 549
52 0.1060226781596314 -0.0076073779165614086 8.1307211928935814 130 132 121 0.31872969272849766 2 174 3 416 1 527
53 0.28442835452506809 -0.00038216589161432779 8.1041366193295481 133 135 124 0.44250292818990999 2 175 3 433 1 528
54 -1.4393891651002169 -0.39481414456118147 10.214391988530521 134 136 125 1.1734625810816852 3 181 1 400
55 1.9775232341511 0.024158783745725998 7.9978200538991002 132 133 120 1.8339662515237429 2 177 3 573 1 489 1 504
56 1.6073075657125409 0.015239930943488633 8.1223413530765569 125 126 120 0.38839802537235607 2 179 3 538 1 492
57 0.43493565439192361 0.059290562193057395 7.9280142227739621 83 84 76 0.66941667125252546 2 181 3 467 1 543
58 1.7958544613062739 0.017826203095894666 8.1167484047876233 133 134 126 1.6120208581797353 2 182 3 546 1 488
59 1.9430285717813329 0.0087683691726441193 8.1618320749442255 122 124 113 1.4055803466983281 2 183 3 557 1 477
128 1.4593348846182632 0.58371298523078274 7.7973917314997712 131 132 124 0.68655157247700027 2 359 3 749 1 673
129 1.1618220459471735 0.60290322359050785 7.6474091979746017 29 30 26 0.33313166795311616 2 364 3 747 1 689
130 1.8181203803413597 0.59591384573640271 7.8068517528246977 101 102 94 0.087422606764789607 2 366 3 784
131 2.0329653449570699 0.59702657885525989 7.7549503471936694 64 65 57 0.32274648954199259 2 367 3 800
132 1.9196528578118532 0.60116033183677153 7.7764693374939391 107 109 96 0.38376171238235973 2 371 3 792 1 666
133 -1.8421185504386319 0.49890905912973471 10.082356733393809 113 114 100 0.83362004306741522 2 374 3 362
134 0.23970540725425726 0.63150041251100564 7.9520224340142862 77 78 72 0.75566515001377443 2 377 3 648 1 704
135 -0.10035338860473186 0.65356263400071568 7.733738996199742 123 127 120 0.38581421862070364 2 380 3 638
136 1.0270139003537775 0.65103290937299785 7.7201072095940173 88 89 81 0.90044032912520899 2 381 3 746
137 -0.35160614911606936 0.67908600136352804 7.4839969517397096 141 147 137 0.39567533671323896 2 385 3 644
138 1.4032817711073928 0.68250687535719934 7.734353870175104 111 115 108 0.20854482882013903 2 393 3 790
139 2.2493769117421749 0.72062495564446627 7.4968408788838641 127 145 137 0.076014268839637161 2 405 3 876
140 1.4260309516376166 0.73881227387590609 7.7258809280857772 150 156 150 1.1742246525733651 2 417 3 810 1 713
141 0.52304533297445488 0.78680710684069444 7.6614360275828375 123 124 116 0.65771835006852919 2 433 3 772
142 -0.49751321240930402 0.82456232061679724 6.8394066115171102 92 137 117 0.58617755395767956 2 442 3 766
143 -0.37985988922724956 0.82458213727690044 6.7651796307186087 36 53 47 0.26807373950849367 2 443 3 786
144 1.5758613130728021 0.82678733175243213 7.7289496390074142 120 128 117 1.3478844078511785 2 456 3 855 1 733
145 -0.35982862138927185 0.84710327295213017 7.3850456376423228 148 149 139 0.33015868868900322 2 468 3 736
146 -0.51819936253103482 0.89325960694033002 6.3691920961509014 122 129 115 0.22006950527920863 2 495 3 846
147 0.4448638115131609 0.89771536931203155 7.4927495318649164 156 157 149 0.73008827522257336 2 503 3 818 1 791
148 1.7707699717908549 0.89324744365295528 7.69086536570821 157 158 150 0.2504969420604381 2 504 3 888
149 -2.0234092094155196 0.89085984795314321 9.4540968232815032 113 118 105 0.69158809908909802 2 506 3 488 1 728
150 -0.42490341207823912 0.90046200104382235 6.3314924722714592 94 122 111 1.7663726151126178 2 507 3 868 1 882 1 883
151 1.9213782231809087 0.91402093786213445 7.6016483058843116 148 150 139 0.14800092779175678 2 521 3 906
152 -0.34622664927264246 0.94676404507831136 6.3228196816994311 147 153 143 1.8314729390636109 2 535 3 892 1 907 2 561
153 1.1847196463003287 0.96112056505009069 7.482322274980163 150 152 139 0.40694535971075657 2 557 3 894
154 -0.54793083082686089 0.95269561829195282 6.3543912011073278 29 45 32 0.69234712751227567 2 560 3 875 1 906
155 1.7903230678755011 0.98250758974672237 7.6506860144386604 132 134 123 0.36751777613605602 2 573 3 924 1 780
156 2.5932142400418732 0.97893651979934315 6.6074608165410611 88 113 114 2.6773890617101683 2 575 3 1065
157 2.0563790017328696 0.98893276339463931 6.368758214598178 98 109 93 1.0078028310243221 2 586 3 1060 1 860
158 -0.53920507495637815 1.0097581504286066 7.2928983409640313 130 153 137 0.23198744880845151 2 587 3 807
159 -2.0376126091624149 1.057411925481492 9.2442859905786996 112 114 103 0.32562188488174654 2 598 3 544 1 784
160 1.9265519957564488 1.0224160168425034 7.5497474811532914 154 156 145 0.69126893203878437 2 600 3 942
161 1.6590189881334299 1.0423000419769755 7.6425054963009771 105 113 100 0.86741178123055251 2 606 3 928 1 795
162 0.66310972161814385 1.0590083547109643 7.406350824625572 120 121 111 0.31636458749853141 2 612 3 903
163 -0.35529629076113101 1.0494196139931562 6.2778283743388723 122 130 119 1.3881091158427177 2 619 3 940 1 941 2 634
164 -0.26177173315370617 1.0415947945270845 6.2554660181172181 95 97 89 1.036563946784363 2 620 3 946 1 935
165 0.011720905729689868 1.0502128999780496 6.3203702903445729 120 122 109 1.4878621634788327 2 621 3 966 1 934
166 0.22519730534890048 1.0504430684953192 6.3372364637775505 119 122 111 1.0222749657666141 2 623 3 972
168 0.97942329551399254 1.0697969140719614 6.3712402056594293 80 82 69 0.5386468427031067 2 639 3 1025 1 921
170 1.1867951253928624 1.0751292805468085 6.3334827090227064 127 128 121 0.89896617747212704 2 648 3 1043 1 923
171 -0.55301955359340393 1.0787913864055798 6.2683664398649306 121 123 115 1.068081279169087 2 651 3 934 1 953
172 1.8306496663432328 1.0892819596415064 6.3372392241145326 154 155 148 0.42572145096671621 2 654 3 1100 1 909
173 2.0659961787934309 1.0843551247285894 6.3306853196122805 134 145 132 1.0387220500014138 2 655 3 1111 1 898
174 0.081829595959832524 1.1020033378159035 6.2989523459274128 158 163 157 0.26152593948963743 2 663 3 990
175 2.2451560970343305 1.1048512888581432 6.3155997354537963 146 151 144 0.26363581042007678 2 666 3 1139
176 -1.8614040100067526 1.2494085284936802 9.1426202179796476 86 88 74 0.57365403252549207 2 668 3 633 1 827
177 -0.55166749629770306 1.1488094800171664 6.2330303196038361 120 130 121 0.67478927916839115 2 678 3 976
178 -0.35459095221814185 1.1586885670220746 6.2279704186800862 105 111 103 0.63442776830854386 2 685 3 1002 1 970
179 0.62655841585642813 1.1637872309621462 6.2676773617591861 125 128 119 1.4713262107356906 2 695 3 1057
180 1.8214767612945408 1.1887003633904607 6.2737781694195967 158 159 151 1.0349053794249696 2 705 3 1163 1 947
181 -1.9278728167609924 1.3834153728931833 8.9907783491916415 138 136 124 0.0029708850033527369 2 707 3 705
182 -2.1677761738109242 1.3871151258908023 8.946057522202052 154 164 158 0.060097747410361155 2 711 3 685
183 -2.0276133237179224 1.3830310592724149 8.9707976182498665 141 144 133 0.81528418489175758 2 712 3 694
184 -0.35100926468803584 1.1896277412450007 6.1998312868482692 120 128 117 0.3265634631734543 2 713 3 1017
185 0.48042643509829652 1.1901067327562607 6.2382124871917526 144 148 134 1.7304412681230681 2 718 3 1063
186 2.0580452540647407 1.1962253732617434 6.2436040287516335 116 121 108 0.26362873344705456 2 721 3 1189 1 943
187 2.2628139978892623 1.194879796070266 6.2538922848455982 111 117 107 0.51147595382617228 2 722 3 1200 1 940
188 0.92688622586420033 1.1976295832936485 6.2456436042313239 150 152 141 1.2086775951640027 2 724 3 1102
189 0.81162334669049763 1.20224506240847 6.2342136432577568 115 116 105 1.3056733522268098 2 729 3 1099
190 -2.1577468985789401 1.4627036510433686 8.9060773841870144 110 113 102 0.22997416825720673 2 756 3 729
191 -1.9274733794118559 1.4681495980655122 8.9019468504506847 103 106 93 0.4147282439781958 2 759 3 751 1 912
192 -1.7906187234225157 1.4637953418195218 8.9603302076236844 86 89 77 1.1282278605500549 2 760 3 757 1 897
193 -0.56434491330505843 1.2412528310900253 6.1702612229762259 82 90 79 1.5926081286305511 2 761 3 1036 1 992
194 -0.44155936253985595 1.2460201751735878 6.1709863296857179 116 133 123 0.37715934057986472 2 772 3 1048
195 -0.35067098979519318 1.2516555930375475 6.1719623607516372 134 142 131 0.40499219940590575 2 774 3 1056 1 990
196 -0.1824583626967875 1.2620133288766513 6.1996048867946225 145 148 137 1.0607236521987125 2 775 3 1076 1 991
197 -0.074940551111772002 1.2583471631203174 6.2011375543210976 146 151 137 0.39499156629595505 2 776 3 1079 1 987
198 0.13485100319916876 1.2544332010520609 6.2063760674199457 142 143 137 0.94008505042569679 2 777 3 1089
199 0.031667730241569103 1.2687667221318801 6.2107257943095631 135 137 126 0.021754195020451284 2 782 3 1093
200 0.24242358703705058 1.2673242207523885 6.1976112811932058 149 150 142 0.41462640740971074 2 784 3 1110 1 984
201 1.0251732851942643 1.2716826681073141 6.2331871207852281 128 129 121 1.2316807488952124 2 790 3 1158
202 1.1325883530932659 1.277594915679487 6.2284456854380661 144 145 137 0.77907152230861676 2 794 3 1173
203 -2.0676888058659744 1.5378876426717509 8.8572908448860712 146 148 137 0.30465442425540601 2 796 3 773
204 2.0481547664537549 1.2919109315124526 6.1908403382972992 153 155 145 0.51723591570855498 2 808 3 1274 1 969
205 2.2634572755161493 1.2923643980978485 6.2013722357227534 129 141 131 0.59415222116425115 2 809 3 1287 1 962
206 -0.56119905229268685 1.301197321533472 6.1574353478565405 162 172 166 1.4266223525303614 2 812 3 1078
207 -0.42559221910276612 1.2961034135450458 6.1390063043468963 141 159 150 0.5414783287650895 2 814 3 1088
208 0.45656827772038744 1.3034035397917456 6.1730455967791107 33 36 25 0.11549786983971877 2 816 3 1155
209 -1.9278922429888439 1.5959621461637703 8.8355761730863129 132 132 120 1.2394913824492544 2 817 3 809 1 952
210 0.36326259859437915 1.3121756102448061 6.1784830379647779 107 110 99 0.64166054590611699 2 818 3 1154 1 997
211 -2.0484174914005262 1.5911728298653562 8.8206658612847928 148 151 140 0.53947151653242142 2 820 3 803 1 946
212 0.55244723304570265 1.3164912543290215 6.1846439549242866 101 102 94 0.42588753098709015 2 821 3 1169 1 993
213 1.1339804634667257 1.3224339416464903 6.1909318775084774 125 128 119 0.41811032957257122 2 823 3 1221
214 0.78869109374646085 1.3352474743262752 6.1752697887135914 92 95 88 0.2634052183318541 2 830 3 1208
215 2.2395092626890971 1.3346671614407994 6.1441036693009998 144 161 153 0.55096392229097324 2 835 3 1342
216 -1.5732354304146519 1.5959635216625383 8.3263633690563523 147 147 135 0.90531969008428426 2 836 3 886
217 -1.9631050642328267 1.5934302386632693 8.2735308839003707 113 112 106 0.64349575295870531 2 842 3 862
218 -1.4296907894436495 1.5814875536745439 8.1990817733550223 143 149 139 0.091704458351119816 2 843 3 896
219 -0.54168782842700125 1.339675458573748 6.1083569894375795 148 153 146 0.51285963483330643 2 844 3 1115
220 -0.35870877108018395 1.3372056790395157 6.0953359261580742 153 156 149 0.24732311614067384 2 846 3 1128 1 1031
221 -1.7149321838542155 1.604163551941352 8.3413069846588908 116 118 107 0.399063755148372 2 848 3 873 1 965
222 -0.14008463139785388 1.3654594889700489 6.141770137114051 122 123 115 0.34277946729896919 2 857 3 1153
223 0.063295498989148324 1.3775867123969572 6.0890821376560353 145 148 137 0.59371462720638069 2 865 3 1199
224 2.0468408307957535 1.372307709267905 6.1018903552783152 173 177 163 1.2761224740289718 2 867 3 1365 1 985
225 -0.00013913075426952304 1.3895625149154258 6.1647316998187476 135 140 127 1.5122777132301339 2 869 3 1188 1 1019
226 -1.5783204327349249 1.6608800373550208 8.2345301118154399 143 146 133 0.026731116416523489 2 871 3 916
227 0.77533003960683322 1.3879323052406378 6.1438856062801159 110 114 100 1.1309720475925198 2 872 3 1254 1 1008
228 -0.073998486580310052 1.3900416782458322 6.1184892914803264 130 132 124 1.4794618293962309 2 875 3 1194 1 1037 3 1172
229 1.5919036784139604 1.398820851291716 6.1562418293821821 117 119 108 0.041874146480284175 2 878 3 1333
230 0.21827767143909238 1.4141332503238657 6.1195776605299796 141 141 132 1.7825157236146438 2 889 3 1243 1 1038 1 1039
231 0.95502873448128067 1.4140513163994282 6.1488529005570136 143 145 131 1.6520601813606843 2 891 3 1300 1 1009
232 -0.10674625787170289 1.4150867394816511 6.1065464806331882 123 129 119 0.11004954592407877 2 894 3 1207
233 0.69193268095704452 1.4279812106220164 6.1435676398535737 141 143 130 0.36017634578103391 2 896 3 1286
234 -1.5529645902740568 1.742077081785252 8.2809348983111803 54 56 50 0.41137413292234193 2 905 3 938
235 -0.59035827045616895 1.4213320143358295 6.068938138413623 162 175 166 1.5422581066747965 2 906 3 1168
236 -0.36260054054061786 1.4255222001437233 6.0061054075260767 104 109 103 0.58550517448968264 2 907 3 1220 1 1059
237 1.4475581940334128 1.4427183123452605 6.1278652532204863 136 136 124 0.14189322883532476 2 912 3 1364
238 -0.54094644990156948 1.4319000883136896 6.0140476906518021 93 103 94 0.30726471615084 2 917 3 1206 1 1065
239 -0.14755101481551902 1.4511409743714854 6.0973204003826478 153 156 149 1.2685402305372777 2 926 3 1240 1 1054
240 0.51547538213734478 1.4604473477754769 6.1251853649618102 139 140 132 0.56350438364765831 2 928 3 1299
241 2.0575366499696823 1.4661514667139945 6.0265418925502079 124 123 118 0.55288937209668043 2 939 3 1426 1 1033
242 -1.8613114047893313 1.7982955148795416 8.1454930682756839 146 148 137 0.89715255784054349 2 944 3 951
243 2.2380018794990706 1.4706452161234957 6.0309621148054564 53 66 57 0.54082294227083405 2 946 3 1438 1 1026
244 0.59583169889298082 1.4950413999232377 6.0777968800800286 163 165 155 1.2675020987538075 2 951 3 1346 1 1061
245 -1.7737850599718943 1.8384726864330265 8.1385908608465414 69 69 57 0.5872352934499423 2 954 3 974 1 1036
246 -0.52234241765215272 1.5079449162891609 6.0024471352836599 147 154 144 0.73309483537542208 2 958 3 1293
247 -0.44866633466059347 1.4990024919562779 5.9651284823986375 155 161 153 0.050357222837842316 2 960 3 1298
248 0.48431699014872542 1.521331525735222 6.0980893184279612 129 130 122 0.96672884377556578 2 964 3 1355
249 1.7822433365651733 1.546040123649578 6.1167189196847209 50 47 36 1.2623415175957131 2 976 3 1437
250 0.21587740658751597 1.5804069810339891 6.2226190896038798 44 41 32 0.26461447599969212 2 979 3 1354
251 2.044714536362207 1.5387335490960465 5.9873643474719689 161 162 152 0.19073487864954314 2 984 3 1484
252 -1.8651158643569818 1.9331475401832763 8.0281947104974201 113 115 104 0.67550941415687493 2 995 3 1028 1 1069
253 -2.0769438379930398 1.9213490586420554 8.0032143699219205 136 137 131 1.3874731583208366 2 1000 3 1012 1 1064
254 1.7750777773703592 1.6164617926263958 6.234223533063588 49 49 37 0.25231072772190644 2 1003 3 1464
