# 3D point list with one line of data per point:
#   POINT3D_ID, X, Y, Z, R, G, B, ERROR, TRACK[] as (IMAGE_ID, POINT2D_IDX)
# Number of points: 426, mean track length: 2
426 3.0402871693179492 1.9560813075701771 5.8665273156460227 113 115 110 0.81367906298254722 1 1763 2 1882
425 2.8744285925421331 1.959151721489971 5.8897759430381207 85 87 82 0.89103930557423905 1 1762 2 1876
424 5.1992051962248889 1.4656157133057481 4.1209291739078395 161 163 157 1.168058243859174 1 1755 2 2006
423 4.6775003754952644 1.4931239655754538 4.2290510625409423 109 114 108 0.75647960562319971 1 1750 2 2003
422 3.7287757364256624 1.502255182746058 4.3319060702618284 131 139 128 1.1414970928948522 1 1737 2 1991
421 2.8865301612616898 1.9111056400224649 5.9046404757441273 87 88 80 0.88820430457690747 1 1715 2 1831
420 2.7846598547326331 1.9155479211028368 5.9560165601783286 101 102 94 0.11489206431416188 1 1704 2 1820
419 3.2152709649666975 1.8802308779561985 5.81023815905154 116 118 108 0.4192204788716451 1 1697 2 1836
418 3.0955911019769058 1.8747987023920718 5.8264522490418944 111 113 102 0.35392643442545235 1 1693 2 1828
417 4.5657425113130188 1.4569200106347295 4.2782505742290109 155 156 150 0.20298535212892671 1 1690 2 1956
416 5.7481097813523876 1.3485603930011001 3.9432175853735378 121 125 118 0.81605404993807729 1 1679 2 1947
415 5.7095817386105185 1.3607918690002352 3.9917651703228474 116 119 110 0.18618669933924226 1 1673 2 1946
414 4.8880686879420692 1.5871850777552603 4.7799817083739526 50 45 35 1.4939644542360195 1 1672 2 1914
413 5.1385989093165625 1.4497607523128766 4.3042239577233747 120 118 106 1.3116306430901417 1 1668 2 1939
412 3.7122385760354213 1.4648409285792037 4.4350365740776692 146 153 146 1.4122464030604416 1 1666 2 1910
411 2.4891333550904058 1.9895482603028793 6.408098268004677 102 107 100 0.34783061985820907 1 1665 2 1756
410 5.3061070882551329 1.3895817931858709 4.1263980994734695 137 142 135 0.55350646132429782 1 1658 2 1931
409 5.1956567096304491 1.3981944279739658 4.1556545118468513 131 134 125 0.47689575838830628 1 1657 2 1930
408 5.0732247347365469 1.5544058145541684 4.7505340178607476 60 50 41 2.5175491446955434 1 1655 2 1856
407 2.8908897279017309 1.8592692471961747 5.927920508614287 93 96 87 0.57740274148781356 1 1651 2 1787
406 4.912819281245822 1.5597331849288465 4.7436957254066083 23 19 11 1.165762778923416 1 1647 2 1900
405 2.9767755879052591 1.8562078950353238 5.9164509670845913 73 81 68 0.10786707769809126 1 1645 2 1794
404 2.7753198357888809 1.8613501715322602 5.953101221226424 118 119 111 0.10019504872656418 1 1644 2 1777
403 4.570162402887914 1.4268220082761276 4.307326223850521 140 143 134 1.3162624722124576 1 1639 2 1913
402 3.2047971335877494 1.8351273027919361 5.8824327762098534 95 95 88 0.3686463117754204 1 1636 2 1778
401 4.0884487378887426 1.4565571801960924 4.4540099906253205 107 112 106 0.87402181723252892 1 1633 2 1893
400 3.1067279498928499 1.8187288964487922 5.914438493291529 141 138 129 0.093732769179428535 1 1616 2 1768
399 2.5067918117220533 1.9473324200352269 6.4506314155427038 107 112 105 0.61042596874566901 1 1614 2 1704
398 2.4230262493230863 1.9472002528820436 6.451077874019477 75 81 77 0.31082575943335666 1 1613 2 1703
397 2.9035339068665702 1.8153787138250892 5.9424670080582924 87 87 79 0.46395147384844149 1 1606 2 1753
396 2.7696960668537218 1.8167775331383815 5.9650195215854396 121 122 115 0.90220903454767543 1 1605 2 1741
395 5.8897692250892248 1.3095932607177221 3.9685238371656388 148 149 143 0.84745666395080921 1 1603 2 1916
394 2.8298677647532453 1.8149766401481937 5.9584123745742446 121 123 113 0.14569301002651858 1 1601 2 1746
393 5.7144518073940871 1.3404006223976246 4.1200078933162132 96 99 92 0.12158410213539533 1 1597 2 1887
392 5.7431817547346409 1.3070497530541256 4.0448134462429666 119 120 112 0.020585911439590581 1 1589 2 1879
391 3.7212119768558569 1.4080562459916657 4.4601252214873952 157 162 155 0.0031451417488993589 1 1588 2 1845
390 2.4938665628332575 1.9015620540162086 6.4543896105777687 95 100 94 0.29901729154575918 1 1586 2 1659
389 5.8085197314426686 1.2982361759387051 4.0187832092234572 88 88 86 0.80936673244140578 1 1585 2 1888
388 2.4361111195775487 1.9028026284207142 6.4667757767880616 78 83 77 0.53498438827439232 1 1581 2 1658
387 2.3664718768096993 1.9012414856734001 6.4828198614630921 105 110 106 0.29595110277937264 1 1580 2 1652
386 5.1484863481062693 1.372874255602252 4.2986913363126771 44 47 40 1.312225033469725 1 1573 2 1868
385 3.8220131157188622 1.3994249651910902 4.4422962576868814 159 164 157 0.44182854504038499 1 1571 2 1846
384 2.9942657013305993 1.7708950514976447 5.9431104323893749 99 99 89 0.078258326019789465 1 1570 2 1721
383 2.8277624005908506 1.7687916737285303 5.9739582589293097 125 126 118 0.43679707909904569 1 1563 2 1696
382 2.9101924993714374 1.7626106635798036 5.9607014512757264 98 99 91 0.36168950159797103 1 1561 2 1697
381 4.6865874352245083 1.3647213528036701 4.3382491113662009 130 135 128 1.8570961472266867 1 1559 2 1834
380 5.8661285756762771 1.2671315331525623 3.9946379308629592 149 157 146 0.019878985147207536 1 1545 2 1854
379 3.9776081186568866 1.3752958334975616 4.4608368966617551 80 85 79 0.28761170883825005 1 1540 2 1814
378 2.4455080503992996 1.8560274999141297 6.4798362570987358 82 87 81 0.139755918146305 1 1539 2 1598
377 3.2120312965176048 1.7277117846155368 5.9281917162897866 114 114 106 0.3418032051560802 1 1536 2 1678
376 3.119780912469226 1.7338496769661238 5.9575127506027385 99 104 90 0.40494302904527263 1 1535 2 1675
375 3.0017675088334101 1.7261574364523851 5.9732566356431072 96 97 88 0.33693964759374639 1 1528 2 1665
374 3.1661806680927764 1.7168815671744351 5.9335688449076738 26 28 25 0.90488924655379011 1 1527 2 1674
373 2.9231904937086277 1.7193341565677978 5.9750561606423354 92 93 85 0.063615819086284262 1 1526 2 1654
372 2.8469168782840306 1.7171917492743767 5.9967350271016482 123 124 115 0.25320913375533016 1 1523 2 1646
371 3.7240442372153857 1.3540865145811571 4.4930238212270535 155 160 154 0.32619433838202649 1 1515 2 1798
370 2.5575149347949249 1.8005219731451305 6.4477543192718816 119 121 116 0.1421049509661117 1 1511 2 1565
369 2.458287417277004 1.8077763087047241 6.4970928580178402 79 84 78 0.29615315139100495 1 1508 2 1556
368 2.3641123909638928 1.8087890087015304 6.5079053702000174 105 111 101 0.33718394755514713 1 1507 2 1549
367 5.8074886254611666 1.2387140951562203 4.0549627462849624 90 92 81 0.083957743641118077 1 1498 2 1825
366 3.0060808530401131 1.6814983697071155 5.9877109252761951 102 104 93 0.47376001357449038 1 1496 2 1612
365 5.863116174558801 1.2218124852953371 4.0152736293275026 156 160 150 0.28012718618772392 1 1485 2 1815
364 4.8163304476241757 1.4370940979223286 4.9194600273291051 34 34 22 0.81666152913323053 1 1483 2 1749
363 4.5409741671062989 1.3169949918858699 4.4104203841077574 142 143 136 0.90532395442307678 1 1482 2 1790
362 2.8175935202847424 1.6802586977569203 6.0332398419702962 124 126 115 0.35314049855168472 1 1481 2 1590
361 5.5975103366661134 1.3599066381277096 4.6944852755694715 35 36 31 0.82758003401313551 1 1462 2 1766
360 3.2244908251445437 1.6339657650306683 5.9610648620368831 108 105 100 0.47245384072487473 1 1461 2 1575
359 3.1353675257228293 1.6359759768040314 5.9932243761285058 82 86 73 0.33391791057293374 1 1457 2 1567
358 3.011673464452961 1.6338996268883919 6.0104103690465234 103 105 92 0.20625085448998803 1 1453 2 1561
357 3.8199033126637367 1.2975709109584788 4.4945720772270885 141 148 139 0.34509405059910941 1 1448 2 1764
356 3.7339694085182247 1.3015176002464046 4.5175612454740524 148 153 146 0.28578690993563283 1 1447 2 1755
355 2.9349483415203319 1.6315834634997477 6.0186779213205046 91 93 81 0.17047586392268188 1 1446 2 1557
354 2.8548510142359533 1.6320143525247475 6.0362128481957864 124 126 113 0.31961104557486175 1 1445 2 1545
353 2.7356134718574951 1.6341251278451261 6.0637527473117583 129 132 125 0.74630625325955513 1 1441 2 1541
352 5.5819229389330953 1.3434793748400207 4.7114100100196126 16 17 11 0.70167850005515386 1 1439 2 1743
351 5.0472566711742406 1.3741016140148374 4.8516252927782162 34 35 29 0.2167906323137169 1 1437 2 1728
350 5.0245040957909728 1.3771024744996805 4.8627476222050241 22 25 16 0.054159010038902847 1 1436 2 1727
349 5.8051794598880999 1.1951124399031219 4.0815710068568922 103 104 96 0.15477477002740581 1 1434 2 1791
348 4.8568929515804369 1.3840047135680047 4.9211498315297852 26 27 19 0.76367246974212666 1 1433 2 1711
347 2.4742028658098225 1.7237796396263672 6.5310582361122211 85 92 85 0.32697321288370823 1 1432 2 1456
346 5.872399719330736 1.1741521688079433 4.0486676257368526 158 162 153 0.44891937944828963 1 1405 2 1774
345 2.9424124119144497 1.5835207582828703 6.035902453730186 96 98 85 0.19591263349594362 1 1382 2 1498
344 2.5856648098986574 1.6740839237310288 6.5039893296100963 125 126 118 1.0023048612090952 1 1381 2 1415
343 2.8659890249285116 1.5832945549394581 6.0424321511739816 129 131 119 1.1154403956926848 1 1377 2 1497
342 2.4837758383891413 1.6763815765930765 6.5449478586493886 93 94 88 0.025568836451868242 1 1374 2 1406
341 3.684959526026689 1.2613615590661451 4.5556093501641932 112 106 102 0.52168293084477257 1 1372 2 1709
340 2.4134948305717279 1.6761478593360299 6.5594845889977336 112 114 107 0.58757206022183184 1 1371 2 1401
339 3.8257678622151228 1.2448832496355666 4.5228600150193845 137 140 129 0.25905347655515926 1 1362 2 1701
338 3.7360323149527876 1.2481888798523399 4.5436525828835794 149 154 147 0.24746794727595126 1 1361 2 1693
337 3.0266000182130908 1.5488260353020258 6.0488216738571108 100 100 88 0.063524287634533216 1 1347 2 1468
336 2.9506804697700111 1.5417832523488326 6.0523995675685995 100 100 90 0.16011895489856209 1 1341 2 1453
335 2.5995694374667648 1.6266151104740425 6.5061310943183805 127 128 122 0.12317555864284656 1 1333 2 1378
334 2.4937689935486906 1.6335449292775903 6.557543338429296 94 95 90 0.28552137435279262 1 1332 2 1371
333 3.0364124821996299 1.5011046130168437 6.0606590885374452 107 107 97 0.55049844001447579 1 1298 2 1417
332 5.153386678626525 1.1710572878108931 4.3792694847824833 82 83 75 0.78249682910727136 1 1295 2 1681
331 2.5059265692058958 1.5909862728664685 6.5787560479330018 92 94 81 0.14658889526644792 1 1294 2 1317
330 2.415384358116726 1.5904142165480297 6.6025035221885204 118 120 112 0.38574399095156631 1 1292 2 1304
329 3.8288180352637453 1.1947841314988288 4.5482384763270538 140 146 137 0.40064660691724946 1 1285 2 1650
328 3.73565581508017 1.1975644787519257 4.5670036637965197 155 165 156 0.43247660464414284 1 1284 2 1638
327 4.0969949308532865 1.1961878844234095 4.6194430821029737 26 29 22 0.084241726110429099 1 1273 2 1624
326 5.7858452987409796 1.0814725741007338 4.0595891549697267 53 54 47 1.3753155356758595 1 1271 2 1712
325 5.7318526592379655 1.0911030461387354 4.1318887563480322 120 125 112 0.019015664589395229 1 1261 2 1702
324 5.7038071745933134 1.123519354713411 4.2780913108736423 94 94 84 1.7832596228676301 1 1260 2 1694
323 3.0390028073387207 1.4547437775933709 6.0803287350267201 110 110 99 0.57391987281855994 1 1259 2 1374
322 2.9610096214718942 1.45242699444684 6.0888373974028127 101 102 91 0.0485910755853486 1 1258 2 1367
321 2.8556448208238785 1.4539002836974568 6.1177602442843124 134 135 127 0.40473767443001013 1 1254 2 1351
320 4.5341562965627551 1.1565735803052659 4.4978050935670026 55 54 49 0.23936965868706911 1 1251 2 1634
319 4.6858525596732372 1.1427468535923946 4.4440388949356642 79 80 72 0.031534134648712075 1 1250 2 1640
318 5.6968296361835726 1.1212548084743554 4.342894400495271 100 100 90 1.2057708407756136 1 1243 2 1671
317 4.5870956739921942 1.1382085210064004 4.447591211118354 110 112 99 0.56337958955838607 1 1241 2 1627
316 4.6380965234699207 1.1355517157320123 4.4470541342208376 15 17 8 0.30362380977265396 1 1239 2 1628
315 2.5161275239590664 1.5168057090310534 6.6040357452338601 97 98 90 0.49135582744399231 1 1238 2 1214
314 5.12856301785071 1.1372175067600647 4.4738198869256482 53 53 41 0.37382323558462044 1 1237 2 1629
313 3.8322445049777718 1.1438727873858039 4.5748545375638443 150 152 141 0.13725013065635916 1 1226 2 1579
312 3.751072680575624 1.1497999683439446 4.5996021013245194 144 148 141 0.59879494453672877 1 1225 2 1578
311 3.0982715985866567 1.4103350669797332 6.0948289130491169 129 131 120 0.13646355542053248 1 1219 2 1324
310 3.0471376489351827 1.4095564395365638 6.0984770490785092 101 101 91 0.039857060598602841 1 1218 2 1319
309 2.9689061468202693 1.4047062856700072 6.106466700673856 104 104 94 0.14828851848254576 1 1216 2 1305
308 2.6266051000934159 1.4941951398842446 6.5681183582997171 130 131 123 1.6174735324045748 1 1215 2 1217
307 5.8431033621742001 1.0434312033174962 4.1104518566787576 153 160 149 0.14296667366360896 1 1206 2 1669
306 4.5246739008742693 1.1129498652881376 4.521441982902779 127 128 120 1.2550044378756897 1 1202 2 1572
305 5.7577902936328282 1.0528834964491165 4.1848176886028465 108 111 100 0.64364731988999258 1 1199 2 1657
304 5.1333336868627049 1.0963224512391752 4.4246040154275992 69 71 61 0.10674365655144316 1 1197 2 1608
303 2.5296663717442538 1.4644995294879994 6.6223136197284198 94 95 87 0.35665554201654104 1 1190 2 1159
302 5.1897739116902759 1.0645847103286799 4.3322442907745948 145 147 136 0.21957384637100891 1 1180 2 1609
301 4.1154522087048067 1.1106327698577911 4.6226802327608798 114 117 108 0.63731205581279204 1 1178 2 1535
300 2.9738968287158709 1.3636146208962903 6.1190683161974171 107 107 95 0.39412904901536672 1 1177 2 1250
299 4.576195945311726 1.0855733714169553 4.477558056515309 112 115 108 0.28226648949052696 1 1174 2 1568
298 2.9109327342685494 1.3602344935708131 6.1410206053071956 138 140 127 0.062238036191725972 1 1173 2 1236
297 4.7003771380683954 1.0769769561467311 4.4448685648423263 140 142 136 0.24393875966125894 1 1168 2 1573
296 3.2184761567333267 1.3533091661290202 6.0949996824502595 26 28 17 0.57384429301623086 1 1167 2 1266
295 4.0504850477039538 1.100457811718295 4.6083302592282802 92 93 85 0.53235551299929607 1 1163 2 1534
294 3.9362045987799883 1.0929184270171566 4.5849374234647247 138 146 133 0.35227419493001055 1 1162 2 1531
293 3.8400673079578631 1.0935353836250954 4.5967307570936295 134 142 129 0.65181815071024207 1 1160 2 1530
292 3.1954168670588912 1.3481248758303102 6.1029949089540789 106 103 88 1.2826536358079306 1 1158 2 1257
291 3.7485606738517045 1.0928431916049164 4.6179528001732901 144 158 145 0.68630428552229916 1 1155 2 1515
290 5.8447075833333404 1.0198076754573528 4.169039721486139 115 117 103 2.3141500416203193 1 1152 2 1651
289 3.2166120609328894 1.3345891562128418 6.1003776949226243 114 111 96 0.52373071750550892 1 1149 2 1241
288 3.0618662130147918 1.3306043181754872 6.1258738657757146 107 107 95 0.14709763069394793 1 1146 2 1215
287 2.9821962164863791 1.3157234197459291 6.1378864758917437 111 115 101 0.3613565224281301 1 1140 2 1191
286 5.8655822653245586 0.99390914614694226 4.1430398352661575 159 166 158 0.619330685228489 1 1139 2 1623
285 3.2240687760260691 1.3079854808277442 6.1235039007634224 147 155 139 0.74642338674984732 1 1136 2 1201
284 5.7024234868525463 1.0241949807871082 4.3687074352679982 76 76 64 1.4978501021257504 1 1129 2 1580
283 4.5300947009612811 1.0524265833249991 4.5643258879492183 68 67 63 0.95096839421845025 1 1126 2 1516
282 3.064840189513661 1.2853376083274952 6.1461285275591866 116 114 101 0.33102424532729363 1 1121 2 1160
281 2.5471926173865782 1.3643488429297539 6.6570944666937226 102 103 96 0.25856235197111166 1 1120 2 1067
280 3.2265976291927414 1.2787626443392208 6.1146185220134743 119 119 109 0.53131501111776624 1 1114 2 1177
279 3.7617349387523102 1.0473053203261498 4.6487043602830624 145 152 144 0.50856062133015756 1 1110 2 1461
278 3.8435336409509491 1.0392823578718429 4.6246925869930315 142 145 136 0.06131646984244931 1 1106 2 1462
277 5.8047838185792369 0.96811160219063153 4.1845472508181771 151 156 150 0.50180640172165436 1 1105 2 1574
276 4.6968189897108612 1.0082345818769163 4.4977302979419207 141 143 134 0.56042962388945505 1 1094 2 1492
275 5.8530826040551629 0.95438762363720131 4.1736796944204322 164 166 155 0.038687176723978173 1 1085 2 1570
274 5.7178373782398841 0.97682059568234592 4.3013545377541611 147 145 132 0.8527181781753369 1 1083 2 1558
273 4.5975528356027198 1.011042682417034 4.5274312106732104 129 131 119 0.16779303771481907 1 1080 2 1488
272 3.2329988594574148 1.2454585087141861 6.1261237370864254 139 141 130 0.31491819870410098 1 1079 2 1144
271 3.1710607628837728 1.2406728447990034 6.1453672213943769 132 135 124 0.15169176850791677 1 1077 2 1132
270 3.0752585075607937 1.2409537743615779 6.1585412007387603 107 107 95 0.31491201251709255 1 1076 2 1120
269 3.0001250043100969 1.2360500385470561 6.1702227611806801 103 104 90 0.018919279072675262 1 1072 2 1113
268 2.8525693789383233 1.2282498007033822 6.1856658538113169 140 141 132 0.23335680359439553 1 1064 2 1095
267 5.6888812116150298 0.97577498480324176 4.4283170310279871 66 64 49 0.21180424519404037 1 1063 2 1510
266 5.7630674518492109 0.94335179458894114 4.2571082058673655 157 159 148 0.071769046024972249 1 1060 2 1537
265 3.7632305967912649 0.99425931589864147 4.6680197505844383 141 153 141 0.79461063686551947 1 1052 2 1403
264 2.5691507091572618 1.2653490451218297 6.6965415123881389 122 123 113 0.21814377846282779 1 1047 2 993
263 3.0784135730855988 1.1944067649113761 6.1779851779085817 121 121 111 0.37796106879025976 1 1040 2 1081
262 5.8359079400159724 0.91416697488953136 4.1865058392031571 151 154 138 0.62047913964591961 1 1038 2 1532
261 4.5805421390739154 0.96852254926921066 4.5478223320290123 132 133 120 0.02815020830715334 1 1034 2 1443
260 3.9405588289034608 0.97584827563298027 4.639917187310969 146 147 139 0.3797230010331446 1 1026 2 1397
259 3.8534676276387287 0.97107358017716128 4.6554675324419108 138 140 129 0.2119896232103757 1 1022 2 1383
258 4.05321554722304 0.96996332194733537 4.6787799177613536 142 149 141 0.86057173403527787 1 1018 2 1380
127 4.7369688601984112 0.18404380720022726 5.5045183663287887 28 28 25 0.28287643285251862 1 358 2 681
126 3.4209034285534283 0.11997243768238958 6.9564611606946976 77 70 60 0.031340841361821921 1 357 2 358
125 4.3413234412115642 0.16073245265684166 5.7112934339874801 93 99 90 1.7642761701316061 1 356 2 598
124 4.668348323918706 0.17251337924379981 5.5660360022657756 97 98 90 0.57837787793724948 1 354 2 662
123 5.033686594206821 0.16345488284255977 5.4487576194905163 143 144 130 0.53408935003580227 1 344 2 704
122 5.0144246511510806 0.15959989185286741 5.5059500089537803 75 75 63 1.3862995596154537 1 341 2 692
121 4.5421422896843735 0.14095921390899335 5.6742484330979206 117 119 108 1.1671601201316495 1 340 2 606
120 3.2617117829132893 0.077130727505350827 7.0901180184815882 65 75 68 1.0324957480623582 1 338 2 320
119 4.1418675294728509 0.12806447900390189 5.6620429308792009 122 128 124 0.09203842239418436 1 333 2 586
118 5.8675043143460357 0.15055900436837955 5.1275952043239155 97 119 107 0.66062742453665912 1 331 2 801
117 5.3481856273944306 0.13708867440569522 5.4306838928340415 131 134 124 0.46951831059521087 1 330 2 715
116 5.1066111603238227 0.13348698852381058 5.4077106006591684 124 127 117 0.36358545289722893 1 327 2 698
115 5.0064547940642825 0.12330886465930235 5.5256601481282974 37 40 31 0.55385045918510412 1 326 2 660
114 4.8067893603895371 0.1230588240633706 5.4949889127565346 115 117 106 0.057031390726448944 1 322 2 650
113 4.66649817173532 0.116702026294636 5.6026699268337161 114 115 107 0.023029594766895839 1 320 2 617
112 5.6503774880041657 0.13090789991815949 5.246259861158336 136 138 125 0.38805228144136861 1 318 2 759
111 4.3484605566063861 0.097281777459167051 5.7382451740612943 99 102 89 1.4861735269877243 1 317 2 562
110 4.1415281647192819 0.10296348787813103 5.6675131566618457 115 120 116 1.2085830041776324 1 316 2 560
109 4.5306587970667209 0.087295485655083105 5.7079886250638872 80 81 72 2.0660021993922388 1 313 2 575
108 5.3080525293002108 0.10928274726261672 5.4464937280967796 73 79 67 0.54709956410365534 1 311 2 689
107 4.2054120011932614 0.090503157935722167 5.6829657826300899 103 109 99 0.3867859820658649 1 304 2 561
106 4.7166204220693349 0.089461721253197901 5.5371638503800487 132 134 123 0.55840216674716137 1 302 2 618
105 5.7785971789749251 0.10060926950706295 5.2215328917812531 59 62 55 0.24404148287014804 1 300 2 755
104 3.8933805572344129 0.071723821637089458 5.7802026093614725 118 147 135 1.7861116032199122 1 299 2 521
103 5.5398548763252755 0.084739247001947682 5.385727249991632 86 88 77 0.40915424261867289 1 296 2 700
102 5.0302891282244513 0.069734817296092322 5.4951787441005866 88 88 76 0.35620729041112736 1 291 2 625
101 4.5758567693002306 0.059519160485032474 5.6698161100407987 114 116 105 1.0701752706186369 1 284 2 579
100 4.2164910628837022 0.030092309605293577 5.7460903846413753 121 124 117 1.2327548247146951 1 279 2 519
99 4.0426321764707183 0.037826596714042982 5.7398190747305584 92 93 87 0.36473099273888709 1 278 2 518
98 5.1939079228783793 0.04990056678186866 5.4167475288965719 87 89 82 1.0130574318498051 1 276 2 639
97 5.4721845799397517 0.042932238764817721 5.4340581560053405 42 43 38 0.31895335951035919 1 274 2 661
96 4.3597409602293755 0.01980707030085227 5.7569580013792834 46 48 40 0.16491721854308689 1 272 2 525
95 3.4876785789102369 -0.071775696661542598 6.9272114714789801 111 124 114 1.4268770205577432 1 271 2 285
94 5.4014340429421335 0.041884474172942776 5.4468743107492781 72 74 63 0.82995157752891191 1 269 2 655
93 4.964097501277223 0.032648106536395272 5.5418557792870295 39 40 32 0.31972456952964001 1 268 2 601
92 4.820554982389079 0.019615809389620764 5.5381304673464449 146 148 136 1.6368753841522161 1 267 2 587
91 4.4917414067442412 0.0056432229644952092 5.7519176577698712 41 42 34 0.0087710582693528785 1 265 2 528
90 4.4014221762576629 0.0046342994869905119 5.7355981836194658 40 41 33 0.56815553699065835 1 264 2 523
89 4.3805526914119026 0.0066120097137294942 5.7454672024841678 94 97 88 0.062644252038113815 1 263 2 522
88 5.7071356892125609 0.035040208360825054 5.265902580873961 160 160 148 0.011508524526228869 1 260 2 701
87 5.8556262686114158 0.03533280962566332 5.2274495308398823 97 127 109 0.60526825634114856 1 258 2 720
86 5.0716121807779802 0.011774895232426974 5.479854353714849 128 131 121 0.034655818666611438 1 257 2 605
85 3.96072986300765 -0.010166811586090785 5.7872667998124427 134 134 122 0.18050705376837101 1 254 2 479
84 3.9398536897681518 -0.010287422048232353 5.7996014211871998 142 144 131 0.36043528392954893 1 253 2 477
83 4.3042080650767165 -0.014968042788981784 5.7766137535875526 109 117 106 0.14641127034366763 1 251 2 505
82 5.6250767832628483 -0.010140693147861091 5.3804567311674081 128 130 119 1.0477188061146001 1 245 2 640
81 3.4924260239720373 -0.14303181065864251 6.9852623589411476 105 131 120 0.48426739671693497 1 244 2 249
80 4.7902376389110852 -0.028278962700104826 5.5681835648596731 146 147 141 0.22292150004790295 1 243 2 549
79 5.2270416693790542 -0.025513701648165354 5.4742722127574357 66 67 59 0.34492294290066194 1 242 2 597
78 4.9130453984329643 -0.029807787999256208 5.5455063828254172 107 113 105 0.16860760214125109 1 241 2 566
77 4.7179553335552296 -0.032643126680543089 5.603736246631394 112 114 101 0.68289582556428097 1 239 2 543
76 4.9977013322992372 -0.036631701342174416 5.5489095499770329 143 144 136 0.35747638529402104 1 236 2 567
75 5.7689318688185942 -0.013803794171340422 5.2755076296938963 112 109 100 0.28375538580571341 1 233 2 670
74 4.6797809708989266 -0.050488364791724916 5.6889459000168987 118 119 111 0.47339008802102334 1 232 2 524
73 4.2324947702957889 -0.071238433391248468 5.8035463460416725 77 80 73 0.017707792577139114 1 229 2 463
72 4.0523744736956919 -0.08813648291766718 5.7983634929254002 96 97 91 0.40950026225886305 1 221 2 445
71 5.834555342602342 -0.058074883233812602 5.2701895239038752 122 123 115 0.018400744867200905 1 215 2 651
70 4.7214300615644875 -0.091368959481023471 5.6265042051901553 134 135 126 0.71463755473343737 1 213 2 513
69 5.6260249113223511 -0.086173222167541252 5.4233637692704537 73 77 63 0.26603495215880357 1 205 2 599
68 5.233894277135029 -0.10096580741457378 5.4787866449210032 69 71 60 0.66539652017199014 1 203 2 553
67 4.6740779078165033 -0.12493819959698221 5.7116624067799595 53 54 46 0.39816421095040611 1 201 2 482
66 4.5705984509698165 -0.13150458917553304 5.7508420614449083 29 30 24 0.24044547394540522 1 200 2 464
65 3.6096498638202386 -0.25674429103793267 7.0182230856408889 124 125 114 0.14200984149303519 1 199 2 212
64 4.238522659126617 -0.14916774545756734 5.8270287909683312 63 64 58 0.68457934969583933 1 193 2 428
63 3.899913160738806 -0.16768611292986685 5.9334590507164346 152 152 142 1.2014388944161838 1 192 2 377
62 5.8406215191853539 -0.12093767748314804 5.3034853003124631 57 60 49 0.52465217380076568 1 189 2 608
61 5.2278037885084929 -0.13922859177153818 5.4974927598988828 74 75 69 0.7209303079345839 1 188 2 537
60 5.7038456074465564 -0.13072907137226358 5.3430187959435838 83 84 70 0.47196454543011424 1 184 2 594
29 5.7511200110397276 -0.32548638838021943 5.4437745810865401 97 97 87 0.20245376616335531 1 115 2 495
28 4.1890995220443621 -0.41523171009911047 5.9483561730316143 106 106 98 0.79696913890382648 1 114 2 290
27 3.9905673632524015 -0.42276748991784679 6.0186590295572469 148 152 138 0.72780821484448799 1 113 2 266
26 4.0877963526032781 -0.43514020577006091 5.977045089114128 92 96 82 0.15420550719629611 1 111 2 271
25 5.616428659865802 -0.3783186726424152 5.5369578212344752 168 165 156 0.19988656478799016 1 108 2 447
24 4.9067038269976937 -0.42917397467894863 5.7991137705653468 79 80 75 0.98740180701722291 1 106 2 347
23 4.7308101084526477 -0.46525170647950681 5.8883983470069872 141 141 129 1.4588996378160672 1 101 2 311
22 4.2475844177780218 -0.47765596539629346 5.9948319638512135 132 134 129 0.65085887193111014 1 99 2 260
21 5.8115921722795951 -0.39627531811826416 5.4560123512524488 88 98 89 1.2911342990509693 1 98 2 457
20 4.1765336991740725 -0.50169461735230136 5.9598598476327975 100 102 89 0.49011586312661393 1 92 2 254
19 5.6470246633846308 -0.4509092371339663 5.6576611108466714 173 172 167 1.864150956904892 1 91 2 411
18 5.6511320632849564 -0.47242318803551159 5.6531734167670642 207 207 202 1.0538981078207383 1 88 2 397
17 5.1883818089880194 -0.50675827891136715 5.7476498298115501 90 93 83 0.68921473259649813 1 87 2 338
16 4.955467128069091 -0.5316957999653984 5.8345027553576365 131 134 123 0.61483558664730498 1 85 2 306
15 5.1353256133961924 -0.53821197629481787 5.7623454326697576 41 42 34 0.54398282438418066 1 79 2 326
14 5.7852298824682862 -0.50831316050319919 5.5521886119667361 183 190 183 0.34786042122889282 1 78 2 401
1 4.8948171303346513 -0.85217558381367264 5.9596893674040921 144 145 137 1.0588935624857949 1 38 2 169
2 4.7264485097721618 -0.79945082066874384 5.983289075872495 121 126 117 0.49319238269778759 1 43 2 174
3 5.2002870356538375 -0.75558062277019955 5.8243668002150759 121 121 121 0.2731015979719979 1 45 2 235
4 4.8658291252575152 -0.69408756151020334 5.894613551417244 94 97 86 1.3978180694563438 1 60 2 228
5 5.7332291058358438 -0.61773784178993463 5.6953209944080214 227 231 222 0.99417229433511345 1 64 2 339
6 5.0399112125019592 -0.65157845288599336 5.8598192565360083 125 126 112 0.00049120962247381353 1 65 2 261
7 4.147278842945779 -0.68158712743788019 6.1723502383121058 185 186 180 0.41934927685534606 1 67 2 154
8 4.7297958256160468 -0.60786772493827668 5.8981341726139647 101 101 88 0.39562277686752689 1 69 2 257
9 4.8513031696933657 -0.59599770321452072 5.8644365996693644 120 121 116 0.49453445562384324 1 71 2 272
10 4.9646535253345592 -0.59430417371619448 5.8403691547654812 149 148 144 0.15796215719438972 1 72 2 281
11 5.0780583349646768 -0.58171870632596456 5.7748415595958651 133 136 126 0.099892729437349337 1 73 2 303
12 5.1927666617254955 -0.57414393079489234 5.7437788412821558 103 107 93 0.8291290357358444 1 75 2 312
13 4.7846486788487157 -0.56928645649148724 5.8732188251364104 92 94 83 1.348695325272435 1 77 2 277
30 5.6714456667692703 -0.31976944556327797 5.489578332054176 116 117 104 0.0050561788364054238 1 117 2 483
31 4.0762130716532665 -0.3458289749064542 5.9273515638683101 64 65 60 0.50210689933954589 1 121 2 314
32 4.7161346199619238 -0.31362741536880884 5.7488037886346746 84 84 74 0.38902691025342739 1 124 2 392
33 4.8425027039924791 -0.30783576483257885 5.716612645375708 98 99 93 0.75127133760102216 1 126 2 409
34 5.0794898997371032 -0.2945981582269 5.6318076117343363 128 130 117 0.094105654768258079 1 127 2 437
35 5.2018136620921593 -0.28541354331230678 5.5928785080387957 88 90 79 0.27713628680226621 1 129 2 452
36 4.2295288527209092 -0.32286290996275385 5.9338694491257105 109 111 98 0.27043516867298001 1 131 2 335
37 5.7539558611535639 -0.24803930502362964 5.405787673181246 62 66 65 0.047528747176618223 1 133 2 530
38 3.9954617371050296 -0.29519979547174929 5.902925607884594 142 145 133 0.24050846774969245 1 136 2 331
39 4.0691584533214744 -0.28931538964727516 5.8760073134868716 130 133 126 0.36369620666435465 1 137 2 343
40 5.6747528981115067 -0.23654999828458129 5.4497662606308133 109 113 99 0.13954011600369315 1 139 2 526
41 4.9167011555845601 -0.25637160636811779 5.6647971776101489 130 131 124 0.15506708819701462 1 142 2 441
42 3.763103208860362 -0.41117722303196008 6.9375956292599348 145 149 134 0.11730565127013645 1 144 2 168
43 4.6353918249296999 -0.27322006904112711 5.812408536550544 119 120 114 0.80429468539318294 1 145 2 394
44 4.7173010062096123 -0.24365810847780539 5.7163433501436298 145 148 141 1.0183719758320338 1 150 2 431
45 4.8430001254596036 -0.24255715043013365 5.6943731378387383 121 122 116 0.65479356663063615 1 151 2 440
46 5.0741369308133093 -0.22738848910086823 5.6032273970720876 148 151 143 0.49004521668989237 1 154 2 473
47 5.8255977725186119 -0.19650627736752951 5.3504070316273111 136 137 132 0.16136485760578634 1 158 2 568
48 5.2551288286214932 -0.21677218497482936 5.5491964009483183 130 131 126 0.17187723342662459 1 159 2 500
49 5.484426485474307 -0.20589303683255838 5.5551711558877308 147 150 139 0.5228107710440737 1 164 2 515
50 3.9820290316726523 -0.21763658337688069 5.8633461003302116 92 95 88 0.46234263779869111 1 170 2 370
51 4.1469735029651931 -0.20888005155147277 5.8182243417368316 80 81 75 0.34337719200471417 1 173 2 391
52 4.4649929177989183 -0.20688074713368182 5.8321072772784444 130 132 121 0.17624115459379597 1 174 2 416
53 4.586554288478137 -0.19958449368546388 5.7830635073050463 133 135 124 0.61554381936807445 1 175 2 433
54 3.6308596628186347 -0.34372140279705393 6.9846707268018839 134 136 125 1.9660894081834073 1 176 2 181
55 5.6639889115208275 -0.15459421212653152 5.4027447709451266 132 133 120 0.37906446093271606 1 177 2 573
56 5.4299642500887462 -0.15693558667834412 5.5205873088106348 125 126 120 0.27217702590054055 1 179 2 538
57 4.6810195349359409 -0.16720360970144238 5.6671711281885546 83 84 76 0.60612589896685609 1 181 2 467
58 5.55233705018974 -0.15184365617567147 5.4914232275756767 133 134 126 0.62369932249267435 1 182 2 546
59 5.6284027803122996 -0.14874022079168486 5.4723363709281756 122 124 113 0.42875034050281324 1 183 2 557
128 5.3493536250729523 0.18785492106513763 5.3884322207955755 131 132 124 0.090275178941356199 1 359 2 749
129 5.1636189492630136 0.19698732980027286 5.3714681957144048 29 30 26 0.11740062288341417 1 364 2 747
130 5.5730355714624764 0.20040098124557187 5.3250288897843525 101 102 94 0.18791670073774114 1 366 2 784
131 5.7065353064714293 0.20184208525191044 5.2595979801977464 64 65 57 0.23923592722663034 1 367 2 800
132 5.6358544940017792 0.20452342156508987 5.2898552476944545 107 109 96 0.27531599644183602 1 371 2 792
133 3.3485045328770671 0.156554941743036 7.0066361806405073 113 114 100 0.41411231316762109 1 374 2 362
134 4.5533788862512212 0.21225659060088078 5.7131765722137597 77 78 72 0.15790085836408602 1 377 2 648
135 4.3015034301763357 0.22204183123082341 5.678066448570771 123 127 120 0.3069625867712612 1 380 2 638
136 5.0752485083224128 0.22851429635291268 5.4352171686442716 88 89 81 0.8110404704200419 1 381 2 746
137 4.0979951477646548 0.23344029869014082 5.6078354216278079 141 147 137 0.37700432498896486 1 385 2 644
138 5.3177555334622442 0.25189732798419306 5.367666162775441 111 115 108 0.11335257554659262 1 393 2 790
139 5.8558587321427904 0.27805851246756208 5.0888412369761706 127 145 137 0.10633345015430493 1 405 2 876
140 5.3342549490939835 0.29155620826666662 5.3579072904869385 150 156 150 0.46406668717101685 1 417 2 810
141 4.736695873958646 0.31588383044506629 5.5065346744488952 123 124 116 0.73715251885777056 1 433 2 772
142 3.9202505126005303 0.33190092316911968 5.2818985824810198 92 137 117 0.4699674327018652 1 442 2 766
143 4.0085148057882201 0.33167094764353255 5.2108930200828958 36 53 47 0.13235754522958332 1 443 2 786
144 5.4202471323794192 0.34565606821092476 5.3228920466633767 120 128 117 0.73494527475980753 1 456 2 855
145 4.0836402550357507 0.35322599913431513 5.5547547333717429 148 149 139 0.31418585324996307 1 468 2 736
146 3.847231870825393 0.38341806345240298 4.9916793700809343 122 129 115 0.4375439140074292 1 495 2 846
147 4.6799721539907422 0.3897057024827576 5.4374963466676469 156 157 149 0.66266554951513035 1 503 2 818
148 5.5497172525435374 0.38899029508385713 5.2730883255172927 157 158 150 0.34447287470713495 1 504 2 888
149 3.1366028747247547 0.38836317448707991 6.8386530840638677 113 118 105 0.13369600029675005 1 506 2 488
150 3.9210222798146668 0.39242305647132592 4.9419507015486808 94 122 111 0.15421255194422892 1 507 2 868
151 5.6477914432371215 0.40225759321424731 5.2000931320798607 148 150 139 0.22472008969509005 1 521 2 906
152 3.9863589604985936 0.42189066653038032 4.9194330598502045 147 153 143 1.0809799778733784 1 535 2 892
153 5.1827283789104772 0.43360207006700024 5.2792355404332536 150 152 139 0.4578290682017625 1 557 2 894
154 3.8203192434862925 0.4332350793436881 4.9868414616016672 29 45 32 0.52461652876771192 1 560 2 875
155 5.5631027595325326 0.44689261325904678 5.2470389718725219 132 134 123 0.45082334215700859 1 573 2 924
156 6.1528284315352781 0.44579873413065968 4.5273166179546624 88 113 114 2.5242979677903779 1 575 2 1065
157 5.8267952390507656 0.45576695616526758 4.4741304071767587 98 109 93 0.8355475170497364 1 586 2 1060
158 3.9370206242523289 0.47190307705939061 5.5432057459977688 130 153 137 0.24152263683820735 1 587 2 807
159 3.0901955293496624 0.49639235718307467 6.7620064593304132 112 114 103 0.15421851771248207 1 598 2 544
160 5.6540399884089689 0.47226368128266505 5.1715300874767411 154 156 145 0.62296550873897316 1 600 2 942
161 5.4824550238720491 0.48613363874594423 5.2677096131002994 105 113 100 0.95070726660003646 1 606 2 928
162 4.8294026409321775 0.50187821564717816 5.3427206522036261 120 121 111 0.34591518876244354 1 612 2 903
163 3.9800477363095865 0.50605032816727391 4.8922263608951955 122 130 119 0.94676161160298622 1 619 2 940
164 4.0532965390824129 0.50518494133766967 4.8534526967992502 95 97 89 0.20670844027568264 1 620 2 946
165 4.2950688611716137 0.50889532976244678 4.8416937476147393 120 122 109 0.9401765210247599 1 621 2 966
166 4.4676113426627797 0.50778745026726424 4.8054427881882358 119 122 111 0.84177591055656487 1 623 2 972
167 4.3616786860309968 0.51768462705294227 4.8292215781536374 123 127 113 0.075370453986094627 1 635 2 969
168 5.0569349302806836 0.51739986193287635 4.6763331165471484 80 82 69 0.14515212271631506 1 639 2 1025
169 4.343845449163938 0.52302023091014127 4.8433100787359589 110 115 108 1.1742443874995663 1 644 2 967
170 5.211246760976552 0.52083101028196188 4.6105999503970523 127 128 121 1.1440449348507746 1 648 2 1043
171 3.8030407070262693 0.5366530891061011 4.9277094836880622 121 123 115 1.0521133217824086 1 651 2 934
172 5.6726800610235069 0.5285592771312484 4.4923446832210185 154 155 148 0.40990627273840829 1 654 2 1100
173 5.8391417224326814 0.52429173145079255 4.4510641897393715 134 145 132 0.62826078877924885 1 655 2 1111
174 4.3483355200061391 0.54990665467928435 4.8095354656592342 158 163 157 0.089910890726708298 1 663 2 990
175 5.9569513974502062 0.53773037032108006 4.4037917698618045 146 151 144 0.43145393877132548 1 666 2 1139
176 3.2003515222910726 0.61992291154937229 6.6761147445593974 86 88 74 0.30983288035662049 1 668 2 633
177 3.8015180718811958 0.59428425584402345 4.9033582371916573 120 130 121 0.53079048249071259 1 678 2 976
178 3.9732821721925506 0.59977926836647266 4.8560203609751511 105 111 103 0.40417983738139251 1 685 2 1002
179 4.7850719164308941 0.59461980761478106 4.6752703339506194 125 128 119 1.6380536998211315 1 695 2 1057
180 5.672881687274673 0.60086370040424175 4.4554598793549198 158 159 151 0.29012664316104092 1 705 2 1163
181 3.1289470811924236 0.71225088160320471 6.6331108241912773 138 136 124 0.22198059587038305 1 707 2 705
182 2.9433748238180324 0.71905220366644451 6.6768648947310627 154 164 158 0.17804484183233049 1 711 2 685
183 3.0521563509260226 0.71381885271584955 6.6506645856225379 141 144 133 0.58508253639631602 1 712 2 694
184 3.9734493933905357 0.62656955406131509 4.8350198459927949 120 128 117 0.17970653575610102 1 713 2 1017
185 4.6687275118958045 0.61719124134382353 4.684706663402288 144 148 134 1.8951355962957073 1 718 2 1063
186 5.8370130567489573 0.60583982981218143 4.3896816501439249 116 121 108 0.33488112291762673 1 721 2 1189
187 5.9734487254882502 0.60296269176774409 4.3581307926250989 111 117 107 0.68756735196521079 1 722 2 1200
188 5.0174600265654918 0.61831874815587495 4.6006354653908055 150 152 141 1.3703213925127535 1 724 2 1102
189 4.9288770316315835 0.6233115451616591 4.6155279706496888 115 116 105 1.4686806521538449 1 729 2 1099
190 2.9439664041927842 0.77054154213055037 6.6571968776007751 110 113 102 0.45414336716986969 1 756 2 729
191 3.1128372748446278 0.7709081723462885 6.5958975042852632 103 106 93 0.11487590968093506 1 759 2 751
192 3.2265796343928201 0.76591476440744466 6.5860001543583344 86 89 77 0.76726445825848844 1 760 2 757
193 3.7840156349555016 0.67218834733446076 4.8625596508099083 82 90 79 1.5621538513089652 1 761 2 1036
194 3.8911122840828445 0.6749279549947873 4.8343599381150959 116 133 123 0.25016806454830781 1 772 2 1048
195 3.9706710222745785 0.67816550730629854 4.8147225807022096 134 142 131 0.39172648829204948 1 774 2 1056
196 4.1201102284338358 0.68271345920669813 4.7978530721937336 145 148 137 0.84252899064922293 1 775 2 1076
197 4.2113706747036534 0.67914085012693026 4.7750678832500331 146 151 137 0.12918827458533655 1 776 2 1079
198 4.3864071049965441 0.67297785652488196 4.7336472561752174 142 143 137 1.0889572554846056 1 777 2 1089
199 4.3009054076521913 0.68571692823660524 4.7581641701911792 135 137 126 0.16387296723198197 1 782 2 1093
200 4.4757303698861435 0.68211556981175336 4.7058770399259018 149 150 142 0.31166636644422119 1 784 2 1110
201 5.0923382854678252 0.6741813844614708 4.5722958888770062 128 129 121 1.3778005875819672 1 790 2 1158
202 5.1734054804530887 0.67744125787365261 4.5484056922497125 144 145 137 0.92303697140216689 1 794 2 1173
203 3.0030286479612287 0.82101626830854602 6.6136770910659681 146 148 137 0.10337938991084011 1 796 2 773
204 5.8360829919174648 0.67727721133908325 4.3574124262435951 153 155 145 0.1934887841385467 1 808 2 1274
205 5.9785406417063456 0.67348933236530639 4.3225195710859552 129 141 131 0.12381880485946942 1 809 2 1287
206 3.783658618514143 0.72292402328146999 4.8508859076304987 162 172 166 1.3248431211912819 1 812 2 1078
207 3.9014923493054265 0.71719135839736614 4.8078005195187092 141 159 150 0.42557352941714555 1 814 2 1088
208 4.647580267370369 0.70845140012332042 4.6437531333676798 33 36 25 0.26409934465075074 1 816 2 1155
209 3.1044319872316932 0.85457227063963992 6.5707002109427748 132 132 120 0.45290163936851635 1 817 2 809
210 4.5724551652728262 0.71580774863163021 4.6669684951475059 107 110 99 0.41981128745609764 1 818 2 1154
211 3.0100997775774889 0.85820859460944199 6.5923619218749447 148 151 140 0.31902080372982011 1 820 2 803
212 4.7255994510630446 0.7163063280366766 4.6332637683517639 101 102 94 0.14208209169036434 1 821 2 1169
213 5.1752669363619415 0.71270094539550377 4.5223807992610059 125 128 119 0.27890337181681674 1 823 2 1221
214 4.9108337086926435 0.72829115373092179 4.5784768527206143 92 95 88 0.12042485278534509 1 830 2 1208
215 5.9694588796914818 0.70732061629998966 4.2895341158900546 144 161 153 0.4443358724528147 1 835 2 1342
216 3.2840158926424969 0.87348701289328312 6.272884708778216 147 147 135 1.0195201139079202 1 836 2 886
217 2.9721510094313173 0.8821275179592174 6.3480820265223024 113 112 106 0.79678025586565127 1 842 2 862
218 3.3728446525596461 0.86638597610185442 6.182651542562045 143 149 139 0.0048118345164035337 1 843 2 896
219 3.7946175119767389 0.75659084855345959 4.811646838173397 148 153 146 0.4188248780029511 1 844 2 1115
220 3.9554042117035446 0.75129346806055985 4.7621019242835292 153 156 149 0.15622533032150107 1 846 2 1128
221 3.1781731019249113 0.88043717294819457 6.3145389371208456 116 118 107 0.1872946026018697 1 848 2 873
222 4.1501845386138108 0.7692196368640658 4.7460593718288067 122 123 115 0.46121766331936315 1 857 2 1153
223 4.3188990743610454 0.77754319689660034 4.6659298745443429 145 148 137 0.46449905025825444 1 865 2 1199
224 5.8385508560831294 0.74127492652997296 4.2899188354277573 173 177 163 0.12010550395033971 1 867 2 1365
225 4.2702683375069421 0.78792306651007449 4.7294806485697958 135 140 127 0.80903930166337124 1 869 2 1188
226 3.2654652479826116 0.92283467380610373 6.2327551710511209 143 146 133 0.069896732616733515 1 871 2 916
227 4.9022880213484665 0.77269944157593495 4.5598483253493658 110 114 100 0.67401872806600416 1 872 2 1254
228 4.2034527033021005 0.79315969280085197 4.7115774989238837 130 132 124 0.41691724110901829 1 875 2 1194
229 5.5144289915224523 0.76439953018829587 4.4126110434054375 117 119 108 0.15396192995697044 1 878 2 1333
230 4.4474957960718013 0.80448920197653373 4.6509058198439153 141 141 132 0.68370782357598725 1 889 2 1243
231 5.0408364539252082 0.79103996383491204 4.5262099180927429 143 145 131 0.001157066118274343 1 891 2 1300
232 4.175731286547915 0.81062951520406501 4.7136360028236712 123 129 119 0.2214837436709953 1 894 2 1207
233 4.8346576114571462 0.80350084228510343 4.5747159309542198 141 143 130 0.22997322593246422 1 896 2 1286
234 3.2931459102186054 0.97592433378903731 6.2447844265711776 54 56 50 0.33263487462777047 1 905 2 938
235 3.7458079089865759 0.82781556620935925 4.7934485010514933 162 175 166 1.6067110233402833 1 906 2 1168
236 3.9408739218215869 0.82921843980009247 4.6976224160258102 104 109 103 0.37416486275647787 1 907 2 1220
237 5.410633636520215 0.80112173090947292 4.4194339736770267 136 136 124 0.25196925162862205 1 912 2 1364
238 3.7831399858355215 0.8389995844070306 4.7429079954731748 93 103 94 0.074992508431326432 1 917 2 1206
239 4.1409103388970445 0.84364533769317807 4.7147571077922041 153 156 149 0.86156478279643123 1 926 2 1240
240 4.6936611530562491 0.83340327038515527 4.5968362319863054 139 140 132 0.68910677035889201 1 928 2 1299
241 5.8559626895223733 0.8111627919481964 4.2415616103867082 124 123 118 0.53768033492347944 1 939 2 1426
242 3.0296020699871784 1.0311645994972247 6.2609620236974024 146 148 137 0.79507827040560897 1 944 2 951
243 5.9781163931542745 0.81071232001960392 4.2098492948870536 53 66 57 0.61271973196365892 1 946 2 1438
244 4.7566228873079357 0.85994629206561957 4.5478554286699122 163 165 155 1.4428365775116287 1 951 2 1346
245 3.0998175605988409 1.057857237042191 6.2357922237245305 69 69 57 0.23336860235449658 1 954 2 974
246 3.7985233738664332 0.90274701633208643 4.7293192984964758 147 154 144 0.68682521070525393 1 958 2 1293
247 3.8600652441534318 0.89549453220224051 4.6862125391630869 155 161 153 0.1054985961555413 1 960 2 1298
248 4.6677578840613307 0.88366630377652033 4.5835264774401345 129 130 122 1.0842002517095075 1 964 2 1355
249 5.653212121273743 0.87226009230197488 4.3499044206646138 50 47 36 1.3336993078029467 1 976 2 1437
250 4.4548063920623973 0.93013896444124033 4.7227601585805257 44 41 32 0.15726921570724803 1 979 2 1354
251 5.8492761001696723 0.86711071400196649 4.2145434770074601 161 162 152 0.24180874959334653 1 984 2 1484
252 3.0068140397500818 1.1343203100201784 6.2074117061920848 113 115 104 0.26785054397569352 1 995 2 1028
253 2.8284597190770704 1.1385647460598725 6.2489022466101716 136 137 131 0.89128041515422296 1 1000 2 1012
254 5.6397360008497897 0.91863559830384722 4.429291767315112 49 49 37 0.18864473848168906 1 1003 2 1464
255 5.0947161583923259 0.94493502972036514 4.5546976899253018 32 32 22 0.61636019596496738 1 1010 2 1436
256 3.0839375195285843 1.1551650245113081 6.1920289346065385 120 120 110 0.49051461103477767 1 1011 2 1044
257 4.5189642006570958 0.95146950015500309 4.6007449353712744 89 87 76 0.28986805442885433 1 1013 2 1404
